0.0947958 3.8328e-05 3.8328e-05 2 4 3
0.0947955 3.80706e-05 3.80706e-05 2 4 3
0.0947952 3.78155e-05 3.78155e-05 2 4 3
0.0947949 3.75625e-05 3.75625e-05 2 4 3
0.0947946 3.73117e-05 3.73117e-05 2 4 3
0.0947943 3.7063e-05 3.7063e-05 2 4 3
0.0947939 3.68164e-05 3.68164e-05 2 4 3
0.0947936 3.65719e-05 3.65719e-05 2 4 3
0.0947933 3.63294e-05 3.63294e-05 2 4 3
0.094793 3.6089e-05 3.6089e-05 2 4 3
0.0947927 3.58506e-05 3.58506e-05 2 4 3
0.0947924 3.56142e-05 3.56142e-05 2 4 3
0.0947921 3.53798e-05 3.53798e-05 2 4 3
0.0947918 3.51474e-05 3.51474e-05 2 4 3
0.0947915 3.49169e-05 3.49169e-05 2 4 3
0.0947912 3.46883e-05 3.46883e-05 2 4 3
0.0947909 3.44616e-05 3.44616e-05 2 4 3
0.0947906 3.42368e-05 3.42368e-05 2 4 3
0.0947903 3.40139e-05 3.40139e-05 2 4 3
0.09479 3.37928e-05 3.37928e-05 2 4 3
0.0947897 3.35735e-05 3.35735e-05 2 4 3
0.0947894 3.3356e-05 3.3356e-05 2 4 3
0.0947891 3.31404e-05 3.31404e-05 2 4 3
0.0947888 3.29265e-05 3.29265e-05 2 4 3
0.0947885 3.27143e-05 3.27143e-05 2 4 3
0.0947882 3.25039e-05 3.25039e-05 2 4 3
0.0947879 3.22953e-05 3.22953e-05 2 4 3
0.0947876 3.20883e-05 3.20883e-05 2 4 3
0.0947873 3.1883e-05 3.1883e-05 2 4 3
0.094787 3.16794e-05 3.16794e-05 2 4 3
0.0947868 3.14775e-05 3.14775e-05 2 4 3
0.0947865 3.12772e-05 3.12772e-05 2 4 3
0.0947862 3.10785e-05 3.10785e-05 2 4 3
0.0947859 3.08814e-05 3.08814e-05 2 4 3
0.0947856 3.06859e-05 3.06859e-05 2 4 3
0.0947853 3.0492e-05 3.0492e-05 2 4 3
0.094785 3.02997e-05 3.02997e-05 2 4 3
0.0947848 3.01089e-05 3.01089e-05 2 4 3
0.0947845 2.99196e-05 2.99196e-05 2 4 3
0.0947842 2.97318e-05 2.97318e-05 2 4 3
0.0947839 2.95456e-05 2.95456e-05 2 4 3
0.0947836 2.93608e-05 2.93608e-05 2 4 3
0.0947834 2.91775e-05 2.91775e-05 2 4 3
0.0947831 2.89957e-05 2.89957e-05 2 4 3
0.0947828 2.88153e-05 2.88153e-05 2 4 3
0.0947825 2.86364e-05 2.86364e-05 2 4 3
0.0947823 2.84589e-05 2.84589e-05 2 4 3
0.094782 2.82827e-05 2.82827e-05 2 4 3
0.0947817 2.8108e-05 2.8108e-05 2 4 3
0.0947814 2.79347e-05 2.79347e-05 2 4 3
0.0947812 2.77627e-05 2.77627e-05 2 4 3
0.0947809 2.7592e-05 2.7592e-05 2 4 3
0.0947806 2.74227e-05 2.74227e-05 2 4 3
0.0947804 2.72548e-05 2.72548e-05 2 4 3
0.0947801 2.70881e-05 2.70881e-05 2 4 3
0.0947798 2.69228e-05 2.69228e-05 2 4 3
0.0947796 2.67587e-05 2.67587e-05 2 4 3
0.0947793 2.65959e-05 2.65959e-05 2 4 3
0.094779 2.64344e-05 2.64344e-05 2 4 3
0.0947788 2.62742e-05 2.62742e-05 2 4 3
0.0947785 2.61152e-05 2.61152e-05 2 4 3
0.0947782 2.59574e-05 2.59574e-05 2 4 3
0.094778 2.58008e-05 2.58008e-05 2 4 3
0.0947777 2.56454e-05 2.56454e-05 2 4 3
0.0947775 2.54913e-05 2.54913e-05 2 4 3
0.0947772 2.53383e-05 2.53383e-05 2 4 3
0.0947769 2.51865e-05 2.51865e-05 2 4 3
0.0947767 2.50359e-05 2.50359e-05 2 4 3
0.0947764 2.48864e-05 2.48864e-05 2 4 3
0.0947762 2.47381e-05 2.47381e-05 2 4 3
0.0947759 2.45909e-05 2.45909e-05 2 4 3
0.0947757 2.44448e-05 2.44448e-05 2 4 3
0.0947754 2.42998e-05 2.42998e-05 2 4 3
0.0947752 2.4156e-05 2.4156e-05 2 4 3
0.0947749 2.40132e-05 2.40132e-05 2 4 3
0.0947747 2.38715e-05 2.38715e-05 2 4 3
0.0947744 2.37309e-05 2.37309e-05 2 4 3
0.0947742 2.35913e-05 2.35913e-05 2 4 3
0.0947739 2.34528e-05 2.34528e-05 2 4 3
0.0947737 2.33154e-05 2.33154e-05 2 4 3
0.0947734 2.3179e-05 2.3179e-05 2 4 3
0.0947732 2.30436e-05 2.30436e-05 2 4 3
0.0947729 2.29092e-05 2.29092e-05 2 4 3
0.0947727 2.27758e-05 2.27758e-05 2 4 3
0.0947724 2.26434e-05 2.26434e-05 2 4 3
0.0947722 2.2512e-05 2.2512e-05 2 4 3
0.0947719 2.23816e-05 2.23816e-05 2 4 3
0.0947717 2.22522e-05 2.22522e-05 2 4 3
0.0947715 2.21237e-05 2.21237e-05 2 4 3
0.0947712 2.19961e-05 2.19961e-05 2 4 3
0.094771 2.18696e-05 2.18696e-05 2 4 3
0.0947707 2.17439e-05 2.17439e-05 2 4 3
0.0947705 2.16192e-05 2.16192e-05 2 4 3
0.0947703 2.14954e-05 2.14954e-05 2 4 3
0.09477 2.13725e-05 2.13725e-05 2 4 3
0.0947698 2.12505e-05 2.12505e-05 2 4 3
0.0947696 2.11294e-05 2.11294e-05 2 4 3
0.0947693 2.10092e-05 2.10092e-05 2 4 3
0.0947691 2.08899e-05 2.08899e-05 2 4 3
0.0947689 2.07715e-05 2.07715e-05 2 4 3
0.0947686 2.06539e-05 2.06539e-05 2 4 3
0.0947684 2.05371e-05 2.05371e-05 2 4 3
0.0947682 2.04213e-05 2.04213e-05 2 4 3
0.0947679 2.03062e-05 2.03062e-05 2 4 3
0.0947677 2.0192e-05 2.0192e-05 2 4 3
0.0947675 2.00786e-05 2.00786e-05 2 4 3
0.0947672 1.99661e-05 1.99661e-05 2 4 3
0.094767 1.98544e-05 1.98544e-05 2 4 3
0.0947668 1.97434e-05 1.97434e-05 2 4 3
0.0947666 1.96333e-05 1.96333e-05 2 4 3
0.0947663 1.95239e-05 1.95239e-05 2 4 3
0.0947661 1.94154e-05 1.94154e-05 2 4 3
0.0947659 1.93076e-05 1.93076e-05 2 4 3
0.0947657 1.92006e-05 1.92006e-05 2 4 3
0.0947654 1.90943e-05 1.90943e-05 2 4 3
0.0947652 1.89889e-05 1.89889e-05 2 4 3
0.094765 1.88841e-05 1.88841e-05 2 4 3
0.0947648 1.87801e-05 1.87801e-05 2 4 3
0.0947645 1.86769e-05 1.86769e-05 2 4 3
0.0947643 1.85744e-05 1.85744e-05 2 4 3
0.0947641 1.84726e-05 1.84726e-05 2 4 3
0.0947639 1.83715e-05 1.83715e-05 2 4 3
0.0947637 1.82711e-05 1.82711e-05 2 4 3
0.0947634 1.81715e-05 1.81715e-05 2 4 3
0.0947632 1.80726e-05 1.80726e-05 2 4 3
0.094763 1.79743e-05 1.79743e-05 2 4 3
0.0947628 1.78767e-05 1.78767e-05 2 4 3
0.0947626 1.77799e-05 1.77799e-05 2 4 3
0.0947624 1.76837e-05 1.76837e-05 2 4 3
0.0947621 1.75882e-05 1.75882e-05 2 4 3
0.0947619 1.74933e-05 1.74933e-05 2 4 3
0.0947617 1.73991e-05 1.73991e-05 2 4 3
0.0947615 1.73056e-05 1.73056e-05 2 4 3
0.0947613 1.72127e-05 1.72127e-05 2 4 3
0.0947611 1.71204e-05 1.71204e-05 2 4 3
0.0947609 1.70288e-05 1.70288e-05 2 4 3
0.0947607 1.69379e-05 1.69379e-05 2 4 3
0.0947605 1.68475e-05 1.68475e-05 2 4 3
0.0947602 1.67578e-05 1.67578e-05 2 4 3
0.09476 1.66687e-05 1.66687e-05 2 4 3
0.0947598 1.65802e-05 1.65802e-05 2 4 3
0.0947596 1.64923e-05 1.64923e-05 2 4 3
0.0947594 1.64051e-05 1.64051e-05 2 4 3
0.0947592 1.63184e-05 1.63184e-05 2 4 3
0.094759 1.62323e-05 1.62323e-05 2 4 3
0.0947588 1.61468e-05 1.61468e-05 2 4 3
0.0947586 1.60619e-05 1.60619e-05 2 4 3
0.0947584 1.59776e-05 1.59776e-05 2 4 3
0.0947582 1.58938e-05 1.58938e-05 2 4 3
0.094758 1.58106e-05 1.58106e-05 2 4 3
0.0947578 1.5728e-05 1.5728e-05 2 4 3
0.0947576 1.5646e-05 1.5646e-05 2 4 3
0.0947574 1.55645e-05 1.55645e-05 2 4 3
0.0947572 1.54835e-05 1.54835e-05 2 4 3
0.094757 1.54031e-05 1.54031e-05 2 4 3
0.0947568 1.53232e-05 1.53232e-05 2 4 3
0.0947566 1.52439e-05 1.52439e-05 2 4 3
0.0947564 1.51651e-05 1.51651e-05 2 4 3
0.0947562 1.50868e-05 1.50868e-05 2 4 3
0.094756 1.50091e-05 1.50091e-05 2 4 3
0.0947558 1.49319e-05 1.49319e-05 2 4 3
0.0947556 1.48552e-05 1.48552e-05 2 4 3
0.0947554 1.4779e-05 1.4779e-05 2 4 3
0.0947552 1.47033e-05 1.47033e-05 2 4 3
0.094755 1.46281e-05 1.46281e-05 2 4 3
0.0947548 1.45534e-05 1.45534e-05 2 4 3
0.0947546 1.44792e-05 1.44792e-05 2 4 3
0.0947544 1.44055e-05 1.44055e-05 2 4 3
0.0947543 1.43323e-05 1.43323e-05 2 4 3
0.0947541 1.42596e-05 1.42596e-05 2 4 3
0.0947539 1.41874e-05 1.41874e-05 2 4 3
0.0947537 1.41156e-05 1.41156e-05 2 4 3
0.0947535 1.40443e-05 1.40443e-05 2 4 3
0.0947533 1.39735e-05 1.39735e-05 2 4 3
0.0947531 1.39031e-05 1.39031e-05 2 4 3
0.0947529 1.38332e-05 1.38332e-05 2 4 3
0.0947527 1.37638e-05 1.37638e-05 2 4 3
0.0947525 1.36948e-05 1.36948e-05 2 4 3
0.0947524 1.36263e-05 1.36263e-05 2 4 3
0.0947522 1.35582e-05 1.35582e-05 2 4 3
0.094752 1.34905e-05 1.34905e-05 2 4 3
0.0947518 1.34233e-05 1.34233e-05 2 4 3
0.0947516 1.33565e-05 1.33565e-05 2 4 3
0.0947514 1.32902e-05 1.32902e-05 2 4 3
0.0947513 1.32243e-05 1.32243e-05 2 4 3
0.0947511 1.31588e-05 1.31588e-05 2 4 3
0.0947509 1.30937e-05 1.30937e-05 2 4 3
0.0947507 1.30291e-05 1.30291e-05 2 4 3
0.0947505 1.29649e-05 1.29649e-05 2 4 3
0.0947503 1.29011e-05 1.29011e-05 2 4 3
0.0947502 1.28377e-05 1.28377e-05 2 4 3
0.09475 1.27747e-05 1.27747e-05 2 4 3
0.0947498 1.27121e-05 1.27121e-05 2 4 3
0.0947496 1.26499e-05 1.26499e-05 2 4 3
0.0947494 1.25881e-05 1.25881e-05 2 4 3
0.0947493 1.25267e-05 1.25267e-05 2 4 3
0.0947491 1.24657e-05 1.24657e-05 2 4 3
0.0947489 1.24051e-05 1.24051e-05 2 4 3
0.0947487 1.23448e-05 1.23448e-05 2 4 3
0.0947486 1.2285e-05 1.2285e-05 2 4 3
0.0947484 1.22255e-05 1.22255e-05 2 4 3
0.0947482 1.21664e-05 1.21664e-05 2 4 3
0.094748 1.21077e-05 1.21077e-05 2 4 3
0.0947479 1.20493e-05 1.20493e-05 2 4 3
0.0947477 1.19914e-05 1.19914e-05 2 4 3
0.0947475 1.19337e-05 1.19337e-05 2 4 3
0.0947473 1.18765e-05 1.18765e-05 2 4 3
0.0947472 1.18196e-05 1.18196e-05 2 4 3
0.094747 1.1763e-05 1.1763e-05 2 4 3
0.0947468 1.17069e-05 1.17069e-05 2 4 3
0.0947466 1.1651e-05 1.1651e-05 2 4 3
0.0947465 1.15955e-05 1.15955e-05 2 4 3
0.0947463 1.15404e-05 1.15404e-05 2 4 3
0.0947461 1.14856e-05 1.14856e-05 2 4 3
0.094746 1.14311e-05 1.14311e-05 2 4 3
0.0947458 1.1377e-05 1.1377e-05 2 4 3
0.0947456 1.13232e-05 1.13232e-05 2 4 3
0.0947455 1.12698e-05 1.12698e-05 2 4 3
0.0947453 1.12167e-05 1.12167e-05 2 4 3
0.0947451 1.11639e-05 1.11639e-05 2 4 3
0.094745 1.11114e-05 1.11114e-05 2 4 3
0.0947448 1.10593e-05 1.10593e-05 2 4 3
0.0947446 1.10074e-05 1.10074e-05 2 4 3
0.0947445 1.09559e-05 1.09559e-05 2 4 3
0.0947443 1.09047e-05 1.09047e-05 2 4 3
0.0947441 1.08539e-05 1.08539e-05 2 4 3
0.094744 1.08033e-05 1.08033e-05 2 4 3
0.0947438 1.07531e-05 1.07531e-05 2 4 3
0.0947436 1.07031e-05 1.07031e-05 2 4 3
0.0947435 1.06535e-05 1.06535e-05 2 4 3
0.0947433 1.06041e-05 1.06041e-05 2 4 3
0.0947432 1.05551e-05 1.05551e-05 2 4 3
0.094743 1.05064e-05 1.05064e-05 2 4 3
0.0947428 1.04579e-05 1.04579e-05 2 4 3
0.0947427 1.04098e-05 1.04098e-05 2 4 3
0.0947425 1.03619e-05 1.03619e-05 2 4 3
0.0947424 1.03143e-05 1.03143e-05 2 4 3
0.0947422 1.0267e-05 1.0267e-05 2 4 3
0.094742 1.022e-05 1.022e-05 2 4 3
0.0947419 1.01733e-05 1.01733e-05 2 4 3
0.0947417 1.01269e-05 1.01269e-05 2 4 3
0.0947416 1.00807e-05 1.00807e-05 2 4 3
0.0947414 1.00348e-05 1.00348e-05 2 4 3
0.0947412 9.98924e-06 9.98924e-06 2 4 3
0.0947411 9.94391e-06 9.94391e-06 2 4 3
0.0947409 9.89885e-06 9.89885e-06 2 4 3
0.0947408 9.85405e-06 9.85405e-06 2 4 3
0.0947406 9.80953e-06 9.80953e-06 2 4 3
0.0947405 9.76526e-06 9.76526e-06 2 4 3
0.0947403 9.72127e-06 9.72127e-06 2 4 3
0.0947402 9.67753e-06 9.67753e-06 2 4 3
0.09474 9.63405e-06 9.63405e-06 2 4 3
0.0947399 9.59083e-06 9.59083e-06 2 4 3
0.0947397 9.54786e-06 9.54786e-06 2 4 3
0.0947395 9.50515e-06 9.50515e-06 2 4 3
0.0947394 9.46269e-06 9.46269e-06 2 4 3
0.0947392 9.42048e-06 9.42048e-06 2 4 3
0.0947391 9.37852e-06 9.37852e-06 2 4 3
0.0947389 9.3368e-06 9.3368e-06 2 4 3
0.0947388 9.29533e-06 9.29533e-06 2 4 3
0.0947386 9.2541e-06 9.2541e-06 2 4 3
0.0947385 9.21311e-06 9.21311e-06 2 4 3
0.0947383 9.17237e-06 9.17237e-06 2 4 3
0.0947382 9.13186e-06 9.13186e-06 2 4 3
0.094738 9.09158e-06 9.09158e-06 2 4 3
0.0947379 9.05154e-06 9.05154e-06 2 4 3
0.0947377 9.01174e-06 9.01174e-06 2 4 3
0.0947376 8.97216e-06 8.97216e-06 2 4 3
0.0947375 8.93282e-06 8.93282e-06 2 4 3
0.0947373 8.8937e-06 8.8937e-06 2 4 3
0.0947372 8.85481e-06 8.85481e-06 2 4 3
0.094737 8.81614e-06 8.81614e-06 2 4 3
0.0947369 8.7777e-06 8.7777e-06 2 4 3
0.0947367 8.73948e-06 8.73948e-06 2 4 3
0.0947366 8.70147e-06 8.70147e-06 2 4 3
0.0947364 8.66369e-06 8.66369e-06 2 4 3
0.0947363 8.62612e-06 8.62612e-06 2 4 3
0.0947361 8.58877e-06 8.58877e-06 2 4 3
0.094736 8.55164e-06 8.55164e-06 2 4 3
0.0947359 8.51471e-06 8.51471e-06 2 4 3
0.0947357 8.478e-06 8.478e-06 2 4 3
0.0947356 8.44149e-06 8.44149e-06 2 4 3
0.0947354 8.4052e-06 8.4052e-06 2 4 3
0.0947353 8.36911e-06 8.36911e-06 2 4 3
0.0947352 8.33322e-06 8.33322e-06 2 4 3
0.094735 8.29754e-06 8.29754e-06 2 4 3
0.0947349 8.26206e-06 8.26206e-06 2 4 3
0.0947347 8.22678e-06 8.22678e-06 2 4 3
0.0947346 8.19171e-06 8.19171e-06 2 4 3
0.0947345 8.15683e-06 8.15683e-06 2 4 3
0.0947343 8.12214e-06 8.12214e-06 2 4 3
0.0947342 8.08765e-06 8.08765e-06 2 4 3
0.094734 8.05336e-06 8.05336e-06 2 4 3
0.0947339 8.01926e-06 8.01926e-06 2 4 3
0.0947338 7.98535e-06 7.98535e-06 2 4 3
0.0947336 7.95163e-06 7.95163e-06 2 4 3
0.0947335 7.9181e-06 7.9181e-06 2 4 3
0.0947333 7.88476e-06 7.88476e-06 2 4 3
0.0947332 7.8516e-06 7.8516e-06 2 4 3
0.0947331 7.81863e-06 7.81863e-06 2 4 3
0.0947329 7.78584e-06 7.78584e-06 2 4 3
0.0947328 7.75323e-06 7.75323e-06 2 4 3
0.0947327 7.72081e-06 7.72081e-06 2 4 3
0.0947325 7.68857e-06 7.68857e-06 2 4 3
0.0947324 7.6565e-06 7.6565e-06 2 4 3
0.0947323 7.62461e-06 7.62461e-06 2 4 3
0.0947321 7.5929e-06 7.5929e-06 2 4 3
0.094732 7.56136e-06 7.56136e-06 2 4 3
0.0947319 7.53e-06 7.53e-06 2 4 3
0.0947317 7.49881e-06 7.49881e-06 2 4 3
0.0947316 7.4678e-06 7.4678e-06 2 4 3
0.0947315 7.43695e-06 7.43695e-06 2 4 3
0.0947313 7.40627e-06 7.40627e-06 2 4 3
0.0947312 7.37576e-06 7.37576e-06 2 4 3
0.0947311 7.34542e-06 7.34542e-06 2 4 3
0.0947309 7.31524e-06 7.31524e-06 2 4 3
0.0947308 7.28523e-06 7.28523e-06 2 4 3
0.0947307 7.25538e-06 7.25538e-06 2 4 3
0.0947306 7.2257e-06 7.2257e-06 2 4 3
0.0947304 7.19618e-06 7.19618e-06 2 4 3
0.0947303 7.16681e-06 7.16681e-06 2 4 3
0.0947302 7.13761e-06 7.13761e-06 2 4 3
0.09473 7.10857e-06 7.10857e-06 2 4 3
0.0947299 7.07968e-06 7.07968e-06 2 4 3
0.0947298 7.05095e-06 7.05095e-06 2 4 3
0.0947297 7.02237e-06 7.02237e-06 2 4 3
0.0947295 6.99395e-06 6.99395e-06 2 4 3
0.0947294 6.96568e-06 6.96568e-06 2 4 3
0.0947293 6.93757e-06 6.93757e-06 2 4 3
0.0947291 6.9096e-06 6.9096e-06 2 4 3
0.094729 6.88179e-06 6.88179e-06 2 4 3
0.0947289 6.85412e-06 6.85412e-06 2 4 3
0.0947288 6.82661e-06 6.82661e-06 2 4 3
0.0947286 6.79924e-06 6.79924e-06 2 4 3
0.0947285 6.77202e-06 6.77202e-06 2 4 3
0.0947284 6.74494e-06 6.74494e-06 2 4 3
0.0947283 6.718e-06 6.718e-06 2 4 3
0.0947281 6.69122e-06 6.69122e-06 2 4 3
0.094728 6.66457e-06 6.66457e-06 2 4 3
0.0947279 6.63806e-06 6.63806e-06 2 4 3
0.0947278 6.6117e-06 6.6117e-06 2 4 3
0.0947277 6.58547e-06 6.58547e-06 2 4 3
0.0947275 6.55939e-06 6.55939e-06 2 4 3
0.0947274 6.53344e-06 6.53344e-06 2 4 3
0.0947273 6.50763e-06 6.50763e-06 2 4 3
0.0947272 6.48196e-06 6.48196e-06 2 4 3
0.094727 6.45642e-06 6.45642e-06 2 4 3
0.0947269 6.43101e-06 6.43101e-06 2 4 3
0.0947268 6.40574e-06 6.40574e-06 2 4 3
0.0947267 6.3806e-06 6.3806e-06 2 4 3
0.0947266 6.3556e-06 6.3556e-06 2 4 3
0.0947264 6.33072e-06 6.33072e-06 2 4 3
0.0947263 6.30598e-06 6.30598e-06 2 4 3
0.0947262 6.28136e-06 6.28136e-06 2 4 3
0.0947261 6.25688e-06 6.25688e-06 2 4 3
0.094726 6.23252e-06 6.23252e-06 2 4 3
0.0947259 6.20829e-06 6.20829e-06 2 4 3
0.0947257 6.18418e-06 6.18418e-06 2 4 3
0.0947256 6.1602e-06 6.1602e-06 2 4 3
0.0947255 6.13634e-06 6.13634e-06 2 4 3
0.0947254 6.11261e-06 6.11261e-06 2 4 3
0.0947253 6.089e-06 6.089e-06 2 4 3
0.0947251 6.06551e-06 6.06551e-06 2 4 3
0.094725 6.04215e-06 6.04215e-06 2 4 3
0.0947249 6.0189e-06 6.0189e-06 2 4 3
0.0947248 5.99578e-06 5.99578e-06 2 4 3
0.0947247 5.97277e-06 5.97277e-06 2 4 3
0.0947246 5.94988e-06 5.94988e-06 2 4 3
0.0947245 5.92711e-06 5.92711e-06 2 4 3
0.0947243 5.90446e-06 5.90446e-06 2 4 3
0.0947242 5.88192e-06 5.88192e-06 2 4 3
0.0947241 5.8595e-06 5.8595e-06 2 4 3
0.094724 5.83719e-06 5.83719e-06 2 4 3
0.0947239 5.815e-06 5.815e-06 2 4 3
0.0947238 5.79292e-06 5.79292e-06 2 4 3
0.0947237 5.77095e-06 5.77095e-06 2 4 3
0.0947235 5.7491e-06 5.7491e-06 2 4 3
0.0947234 5.72735e-06 5.72735e-06 2 4 3
0.0947233 5.70572e-06 5.70572e-06 2 4 3
0.0947232 5.6842e-06 5.6842e-06 2 4 3
0.0947231 5.66278e-06 5.66278e-06 2 4 3
0.094723 5.64147e-06 5.64147e-06 2 4 3
0.0947229 5.62027e-06 5.62027e-06 2 4 3
0.0947228 5.59918e-06 5.59918e-06 2 4 3
0.0947226 5.5782e-06 5.5782e-06 2 4 3
0.0947225 5.55732e-06 5.55732e-06 2 4 3
0.0947224 5.53654e-06 5.53654e-06 2 4 3
0.0947223 5.51587e-06 5.51587e-06 2 4 3
0.0947222 5.49531e-06 5.49531e-06 2 4 3
0.0947221 5.47484e-06 5.47484e-06 2 4 3
0.094722 5.45448e-06 5.45448e-06 2 4 3
0.0947219 5.43422e-06 5.43422e-06 2 4 3
0.0947218 5.41407e-06 5.41407e-06 2 4 3
0.0947217 5.39401e-06 5.39401e-06 2 4 3
0.0947216 5.37405e-06 5.37405e-06 2 4 3
0.0947214 5.35419e-06 5.35419e-06 2 4 3
0.0947213 5.33444e-06 5.33444e-06 2 4 3
0.0947212 5.31478e-06 5.31478e-06 2 4 3
0.0947211 5.29521e-06 5.29521e-06 2 4 3
0.094721 5.27575e-06 5.27575e-06 2 4 3
0.0947209 5.25638e-06 5.25638e-06 2 4 3
0.0947208 5.2371e-06 5.2371e-06 2 4 3
0.0947207 5.21793e-06 5.21793e-06 2 4 3
0.0947206 5.19884e-06 5.19884e-06 2 4 3
0.0947205 5.17985e-06 5.17985e-06 2 4 3
0.0947204 5.16096e-06 5.16096e-06 2 4 3
0.0947203 5.14215e-06 5.14215e-06 2 4 3
0.0947202 5.12344e-06 5.12344e-06 2 4 3
0.0947201 5.10482e-06 5.10482e-06 2 4 3
0.09472 5.0863e-06 5.0863e-06 2 4 3
0.0947199 5.06786e-06 5.06786e-06 2 4 3
0.0947198 5.04951e-06 5.04951e-06 2 4 3
0.0947196 5.03126e-06 5.03126e-06 2 4 3
0.0947195 5.01309e-06 5.01309e-06 2 4 3
0.0947194 4.99501e-06 4.99501e-06 2 4 3
0.0947193 4.97702e-06 4.97702e-06 2 4 3
0.0947192 4.95912e-06 4.95912e-06 2 4 3
0.0947191 4.9413e-06 4.9413e-06 2 4 3
0.094719 4.92357e-06 4.92357e-06 2 4 3
0.0947189 4.90593e-06 4.90593e-06 2 4 3
0.0947188 4.88837e-06 4.88837e-06 2 4 3
0.0947187 4.87089e-06 4.87089e-06 2 4 3
0.0947186 4.8535e-06 4.8535e-06 2 4 3
0.0947185 4.8362e-06 4.8362e-06 2 4 3
0.0947184 4.81898e-06 4.81898e-06 2 4 3
0.0947183 4.80184e-06 4.80184e-06 2 4 3
0.0947182 4.78478e-06 4.78478e-06 2 4 3
0.0947181 4.76781e-06 4.76781e-06 2 4 3
0.094718 4.75092e-06 4.75092e-06 2 4 3
0.0947179 4.7341e-06 4.7341e-06 2 4 3
0.0947178 4.71737e-06 4.71737e-06 2 4 3
0.0947177 4.70072e-06 4.70072e-06 2 4 3
0.0947176 4.68415e-06 4.68415e-06 2 4 3
0.0947175 4.66766e-06 4.66766e-06 2 4 3
0.0947174 4.65124e-06 4.65124e-06 2 4 3
0.0947173 4.63491e-06 4.63491e-06 2 4 3
0.0947172 4.61865e-06 4.61865e-06 2 4 3
0.0947171 4.60247e-06 4.60247e-06 2 4 3
0.094717 4.58637e-06 4.58637e-06 2 4 3
0.0947169 4.57034e-06 4.57034e-06 2 4 3
0.0947168 4.55439e-06 4.55439e-06 2 4 3
0.0947167 4.53851e-06 4.53851e-06 2 4 3
0.0947166 4.52271e-06 4.52271e-06 2 4 3
0.0947165 4.50698e-06 4.50698e-06 2 4 3
0.0947164 4.49133e-06 4.49133e-06 2 4 3
0.0947164 4.47575e-06 4.47575e-06 2 4 3
0.0947163 4.46025e-06 4.46025e-06 2 4 3
0.0947162 4.44482e-06 4.44482e-06 2 4 3
0.0947161 4.42946e-06 4.42946e-06 2 4 3
0.094716 4.41417e-06 4.41417e-06 2 4 3
0.0947159 4.39895e-06 4.39895e-06 2 4 3
0.0947158 4.38381e-06 4.38381e-06 2 4 3
0.0947157 4.36874e-06 4.36874e-06 2 4 3
0.0947156 4.35373e-06 4.35373e-06 2 4 3
0.0947155 4.3388e-06 4.3388e-06 2 4 3
0.0947154 4.32394e-06 4.32394e-06 2 4 3
0.0947153 4.30914e-06 4.30914e-06 2 4 3
0.0947152 4.29442e-06 4.29442e-06 2 4 3
0.0947151 4.27976e-06 4.27976e-06 2 4 3
0.094715 4.26517e-06 4.26517e-06 2 4 3
0.0947149 4.25065e-06 4.25065e-06 2 4 3
0.0947148 4.23619e-06 4.23619e-06 2 4 3
0.0947147 4.22181e-06 4.22181e-06 2 4 3
0.0947147 4.20748e-06 4.20748e-06 2 4 3
0.0947146 4.19323e-06 4.19323e-06 2 4 3
0.0947145 4.17904e-06 4.17904e-06 2 4 3
0.0947144 4.16492e-06 4.16492e-06 2 4 3
0.0947143 4.15086e-06 4.15086e-06 2 4 3
0.0947142 4.13686e-06 4.13686e-06 2 4 3
0.0947141 4.12293e-06 4.12293e-06 2 4 3
0.094714 4.10907e-06 4.10907e-06 2 4 3
0.0947139 4.09527e-06 4.09527e-06 2 4 3
0.0947138 4.08153e-06 4.08153e-06 2 4 3
0.0947137 4.06785e-06 4.06785e-06 2 4 3
0.0947136 4.05424e-06 4.05424e-06 2 4 3
0.0947136 4.04068e-06 4.04068e-06 2 4 3
0.0947135 4.02719e-06 4.02719e-06 2 4 3
0.0947134 4.01376e-06 4.01376e-06 2 4 3
0.0947133 4.0004e-06 4.0004e-06 2 4 3
0.0947132 3.98709e-06 3.98709e-06 2 4 3
0.0947131 3.97384e-06 3.97384e-06 2 4 3
0.094713 3.96066e-06 3.96066e-06 2 4 3
0.0947129 3.94753e-06 3.94753e-06 2 4 3
0.0947128 3.93446e-06 3.93446e-06 2 4 3
0.0947128 3.92145e-06 3.92145e-06 2 4 3
0.0947127 3.9085e-06 3.9085e-06 2 4 3
0.0947126 3.89561e-06 3.89561e-06 2 4 3
0.0947125 3.88278e-06 3.88278e-06 2 4 3
0.0947124 3.87e-06 3.87e-06 2 4 3
0.0947123 3.85729e-06 3.85729e-06 2 4 3
0.0947122 3.84463e-06 3.84463e-06 2 4 3
0.0947121 3.83202e-06 3.83202e-06 2 4 3
0.0947121 3.81947e-06 3.81947e-06 2 4 3
0.094712 3.80698e-06 3.80698e-06 2 4 3
0.0947119 3.79455e-06 3.79455e-06 2 4 3
0.0947118 3.78217e-06 3.78217e-06 2 4 3
0.0947117 3.76984e-06 3.76984e-06 2 4 3
0.0947116 3.75757e-06 3.75757e-06 2 4 3
0.0947115 3.74536e-06 3.74536e-06 2 4 3
0.0947115 3.7332e-06 3.7332e-06 2 4 3
0.0947114 3.72109e-06 3.72109e-06 2 4 3
0.0947113 3.70904e-06 3.70904e-06 2 4 3
0.0947112 3.69704e-06 3.69704e-06 2 4 3
0.0947111 3.68509e-06 3.68509e-06 2 4 3
0.094711 3.6732e-06 3.6732e-06 2 4 3
0.0947109 3.66135e-06 3.66135e-06 2 4 3
0.0947109 3.64957e-06 3.64957e-06 2 4 3
0.0947108 3.63783e-06 3.63783e-06 2 4 3
0.0947107 3.62614e-06 3.62614e-06 2 4 3
0.0947106 3.61451e-06 3.61451e-06 2 4 3
0.0947105 3.60293e-06 3.60293e-06 2 4 3
0.0947104 3.5914e-06 3.5914e-06 2 4 3
0.0947104 3.57991e-06 3.57991e-06 2 4 3
0.0947103 3.56848e-06 3.56848e-06 2 4 3
0.0947102 3.5571e-06 3.5571e-06 2 4 3
0.0947101 3.54577e-06 3.54577e-06 2 4 3
0.09471 3.53449e-06 3.53449e-06 2 4 3
0.0947099 3.52326e-06 3.52326e-06 2 4 3
0.0947099 3.51208e-06 3.51208e-06 2 4 3
0.0947098 3.50094e-06 3.50094e-06 2 4 3
0.0947097 3.48985e-06 3.48985e-06 2 4 3
0.0947096 3.47882e-06 3.47882e-06 2 4 3
0.0947095 3.46783e-06 3.46783e-06 2 4 3
0.0947094 3.45688e-06 3.45688e-06 2 4 3
0.0947094 3.44599e-06 3.44599e-06 2 4 3
0.0947093 3.43514e-06 3.43514e-06 2 4 3
0.0947092 3.42434e-06 3.42434e-06 2 4 3
0.0947091 3.41359e-06 3.41359e-06 2 4 3
0.094709 3.40288e-06 3.40288e-06 2 4 3
0.094709 3.39222e-06 3.39222e-06 2 4 3
0.0947089 3.3816e-06 3.3816e-06 2 4 3
0.0947088 3.37103e-06 3.37103e-06 2 4 3
0.0947087 3.36051e-06 3.36051e-06 2 4 3
0.0947086 3.35003e-06 3.35003e-06 2 4 3
0.0947086 3.3396e-06 3.3396e-06 2 4 3
0.0947085 3.32921e-06 3.32921e-06 2 4 3
0.0947084 3.31886e-06 3.31886e-06 2 4 3
0.0947083 3.30856e-06 3.30856e-06 2 4 3
0.0947082 3.2983e-06 3.2983e-06 2 4 3
0.0947082 3.28809e-06 3.28809e-06 2 4 3
0.0947081 3.27792e-06 3.27792e-06 2 4 3
0.094708 3.26779e-06 3.26779e-06 2 4 3
0.0947079 3.25771e-06 3.25771e-06 2 4 3
0.0947079 3.24767e-06 3.24767e-06 2 4 3
0.0947078 3.23767e-06 3.23767e-06 2 4 3
0.0947077 3.22772e-06 3.22772e-06 2 4 3
0.0947076 3.21781e-06 3.21781e-06 2 4 3
0.0947075 3.20793e-06 3.20793e-06 2 4 3
0.0947075 3.19811e-06 3.19811e-06 2 4 3
0.0947074 3.18832e-06 3.18832e-06 2 4 3
0.0947073 3.17857e-06 3.17857e-06 2 4 3
0.0947072 3.16887e-06 3.16887e-06 2 4 3
0.0947072 3.1592e-06 3.1592e-06 2 4 3
0.0947071 3.14958e-06 3.14958e-06 2 4 3
0.094707 3.13999e-06 3.13999e-06 2 4 3
0.0947069 3.13045e-06 3.13045e-06 2 4 3
0.0947069 3.12095e-06 3.12095e-06 2 4 3
0.0947068 3.11148e-06 3.11148e-06 2 4 3
0.0947067 3.10206e-06 3.10206e-06 2 4 3
0.0947066 3.09268e-06 3.09268e-06 2 4 3
0.0947066 3.08333e-06 3.08333e-06 2 4 3
0.0947065 3.07403e-06 3.07403e-06 2 4 3
0.0947064 3.06476e-06 3.06476e-06 2 4 3
0.0947063 3.05553e-06 3.05553e-06 2 4 3
0.0947063 3.04634e-06 3.04634e-06 2 4 3
0.0947062 3.03719e-06 3.03719e-06 2 4 3
0.0947061 3.02807e-06 3.02807e-06 2 4 3
0.094706 3.019e-06 3.019e-06 2 4 3
0.094706 3.00996e-06 3.00996e-06 2 4 3
0.0947059 3.00096e-06 3.00096e-06 2 4 3
0.0947058 2.99199e-06 2.99199e-06 2 4 3
0.0947057 2.98307e-06 2.98307e-06 2 4 3
0.0947057 2.97418e-06 2.97418e-06 2 4 3
0.0947056 2.96532e-06 2.96532e-06 2 4 3
0.0947055 2.95651e-06 2.95651e-06 2 4 3
0.0947054 2.94773e-06 2.94773e-06 2 4 3
0.0947054 2.93898e-06 2.93898e-06 2 4 3
0.0947053 2.93027e-06 2.93027e-06 2 4 3
0.0947052 2.9216e-06 2.9216e-06 2 4 3
0.0947052 2.91296e-06 2.91296e-06 2 4 3
0.0947051 2.90436e-06 2.90436e-06 2 4 3
0.094705 2.8958e-06 2.8958e-06 2 4 3
0.0947049 2.88726e-06 2.88726e-06 2 4 3
0.0947049 2.87877e-06 2.87877e-06 2 4 3
0.0947048 2.87031e-06 2.87031e-06 2 4 3
0.0947047 2.86188e-06 2.86188e-06 2 4 3
0.0947047 2.85349e-06 2.85349e-06 2 4 3
0.0947046 2.84513e-06 2.84513e-06 2 4 3
0.0947045 2.8368e-06 2.8368e-06 2 4 3
0.0947044 2.82851e-06 2.82851e-06 2 4 3
0.0947044 2.82025e-06 2.82025e-06 2 4 3
0.0947043 2.81203e-06 2.81203e-06 2 4 3
0.0947042 2.80384e-06 2.80384e-06 2 4 3
0.0947042 2.79568e-06 2.79568e-06 2 4 3
0.0947041 2.78755e-06 2.78755e-06 2 4 3
0.094704 2.77946e-06 2.77946e-06 2 4 3
0.0947039 2.7714e-06 2.7714e-06 2 4 3
0.0947039 2.76338e-06 2.76338e-06 2 4 3
0.0947038 2.75538e-06 2.75538e-06 2 4 3
0.0947037 2.74742e-06 2.74742e-06 2 4 3
0.0947037 2.73949e-06 2.73949e-06 2 4 3
0.0947036 2.73159e-06 2.73159e-06 2 4 3
0.0947035 2.72372e-06 2.72372e-06 2 4 3
0.0947035 2.71589e-06 2.71589e-06 2 4 3
0.0947034 2.70808e-06 2.70808e-06 2 4 3
0.0947033 2.70031e-06 2.70031e-06 2 4 3
0.0947033 2.69257e-06 2.69257e-06 2 4 3
0.0947032 2.68486e-06 2.68486e-06 2 4 3
0.0947031 2.67717e-06 2.67717e-06 2 4 3
0.094703 2.66953e-06 2.66953e-06 2 4 3
0.094703 2.66191e-06 2.66191e-06 2 4 3
0.0947029 2.65432e-06 2.65432e-06 2 4 3
0.0947028 2.64676e-06 2.64676e-06 2 4 3
0.0947028 2.63923e-06 2.63923e-06 2 4 3
0.0947027 2.63173e-06 2.63173e-06 2 4 3
0.0947026 2.62426e-06 2.62426e-06 2 4 3
0.0947026 2.61682e-06 2.61682e-06 2 4 3
0.0947025 2.60941e-06 2.60941e-06 2 4 3
0.0947024 2.60203e-06 2.60203e-06 2 4 3
0.0947024 2.59468e-06 2.59468e-06 2 4 3
0.0947023 2.58735e-06 2.58735e-06 2 4 3
0.0947022 2.58006e-06 2.58006e-06 2 4 3
0.0947022 2.57279e-06 2.57279e-06 2 4 3
0.0947021 2.56556e-06 2.56556e-06 2 4 3
0.094702 2.55835e-06 2.55835e-06 2 4 3
0.094702 2.55117e-06 2.55117e-06 2 4 3
0.0947019 2.54401e-06 2.54401e-06 2 4 3
0.0947018 2.53689e-06 2.53689e-06 2 4 3
0.0947018 2.52979e-06 2.52979e-06 2 4 3
0.0947017 2.52272e-06 2.52272e-06 2 4 3
0.0947016 2.51568e-06 2.51568e-06 2 4 3
0.0947016 2.50867e-06 2.50867e-06 2 4 3
0.0947015 2.50168e-06 2.50168e-06 2 4 3
0.0947015 2.49472e-06 2.49472e-06 2 4 3
0.0947014 2.48779e-06 2.48779e-06 2 4 3
0.0947013 2.48088e-06 2.48088e-06 2 4 3
0.0947013 2.47401e-06 2.47401e-06 2 4 3
0.0947012 2.46715e-06 2.46715e-06 2 4 3
0.0947011 2.46033e-06 2.46033e-06 2 4 3
0.0947011 2.45353e-06 2.45353e-06 2 4 3
0.094701 2.44676e-06 2.44676e-06 2 4 3
0.0947009 2.44001e-06 2.44001e-06 2 4 3
0.0947009 2.43329e-06 2.43329e-06 2 4 3
0.0947008 2.4266e-06 2.4266e-06 2 4 3
0.0947007 2.41993e-06 2.41993e-06 2 4 3
0.0947007 2.41328e-06 2.41328e-06 2 4 3
0.0947006 2.40667e-06 2.40667e-06 2 4 3
0.0947006 2.40007e-06 2.40007e-06 2 4 3
0.0947005 2.39351e-06 2.39351e-06 2 4 3
0.0947004 2.38696e-06 2.38696e-06 2 4 3
0.0947004 2.38045e-06 2.38045e-06 2 4 3
0.0947003 2.37396e-06 2.37396e-06 2 4 3
0.0947002 2.36749e-06 2.36749e-06 2 4 3
0.0947002 2.36105e-06 2.36105e-06 2 4 3
0.0947001 2.35463e-06 2.35463e-06 2 4 3
0.0947001 2.34823e-06 2.34823e-06 2 4 3
0.0947 2.34187e-06 2.34187e-06 2 4 3
0.0946999 2.33552e-06 2.33552e-06 2 4 3
0.0946999 2.3292e-06 2.3292e-06 2 4 3
0.0946998 2.3229e-06 2.3229e-06 2 4 3
0.0946997 2.31663e-06 2.31663e-06 2 4 3
0.0946997 2.31038e-06 2.31038e-06 2 4 3
0.0946996 2.30416e-06 2.30416e-06 2 4 3
0.0946996 2.29795e-06 2.29795e-06 2 4 3
0.0946995 2.29178e-06 2.29178e-06 2 4 3
0.0946994 2.28562e-06 2.28562e-06 2 4 3
0.0946994 2.27949e-06 2.27949e-06 2 4 3
0.0946993 2.27338e-06 2.27338e-06 2 4 3
0.0946993 2.26729e-06 2.26729e-06 2 4 3
0.0946992 2.26123e-06 2.26123e-06 2 4 3
0.0946991 2.25519e-06 2.25519e-06 2 4 3
0.0946991 2.24917e-06 2.24917e-06 2 4 3
0.094699 2.24318e-06 2.24318e-06 2 4 3
0.0946989 2.23721e-06 2.23721e-06 2 4 3
0.0946989 2.23126e-06 2.23126e-06 2 4 3
0.0946988 2.22533e-06 2.22533e-06 2 4 3
0.0946988 2.21942e-06 2.21942e-06 2 4 3
0.0946987 2.21354e-06 2.21354e-06 2 4 3
0.0946987 2.20768e-06 2.20768e-06 2 4 3
0.0946986 2.20184e-06 2.20184e-06 2 4 3
0.0946985 2.19602e-06 2.19602e-06 2 4 3
0.0946985 2.19022e-06 2.19022e-06 2 4 3
0.0946984 2.18445e-06 2.18445e-06 2 4 3
0.0946984 2.1787e-06 2.1787e-06 2 4 3
0.0946983 2.17296e-06 2.17296e-06 2 4 3
0.0946982 2.16725e-06 2.16725e-06 2 4 3
0.0946982 2.16156e-06 2.16156e-06 2 4 3
0.0946981 2.15589e-06 2.15589e-06 2 4 3
0.0946981 2.15025e-06 2.15025e-06 2 4 3
0.094698 2.14462e-06 2.14462e-06 2 4 3
0.0946979 2.13901e-06 2.13901e-06 2 4 3
0.0946979 2.13343e-06 2.13343e-06 2 4 3
0.0946978 2.12786e-06 2.12786e-06 2 4 3
0.0946978 2.12232e-06 2.12232e-06 2 4 3
0.0946977 2.11679e-06 2.11679e-06 2 4 3
0.0946977 2.11129e-06 2.11129e-06 2 4 3
0.0946976 2.10581e-06 2.10581e-06 2 4 3
0.0946975 2.10034e-06 2.10034e-06 2 4 3
0.0946975 2.0949e-06 2.0949e-06 2 4 3
0.0946974 2.08948e-06 2.08948e-06 2 4 3
0.0946974 2.08407e-06 2.08407e-06 2 4 3
0.0946973 2.07869e-06 2.07869e-06 2 4 3
0.0946973 2.07332e-06 2.07332e-06 2 4 3
0.0946972 2.06798e-06 2.06798e-06 2 4 3
0.0946971 2.06265e-06 2.06265e-06 2 4 3
0.0946971 2.05735e-06 2.05735e-06 2 4 3
0.094697 2.05206e-06 2.05206e-06 2 4 3
0.094697 2.04679e-06 2.04679e-06 2 4 3
0.0946969 2.04154e-06 2.04154e-06 2 4 3
0.0946969 2.03632e-06 2.03632e-06 2 4 3
0.0946968 2.03111e-06 2.03111e-06 2 4 3
0.0946967 2.02591e-06 2.02591e-06 2 4 3
0.0946967 2.02074e-06 2.02074e-06 2 4 3
0.0946966 2.01559e-06 2.01559e-06 2 4 3
0.0946966 2.01045e-06 2.01045e-06 2 4 3
0.0946965 2.00533e-06 2.00533e-06 2 4 3
0.0946965 2.00024e-06 2.00024e-06 2 4 3
0.0946964 1.99516e-06 1.99516e-06 2 4 3
0.0946964 1.99009e-06 1.99009e-06 2 4 3
0.0946963 1.98505e-06 1.98505e-06 2 4 3
0.0946962 1.98002e-06 1.98002e-06 2 4 3
0.0946962 1.97502e-06 1.97502e-06 2 4 3
0.0946961 1.97003e-06 1.97003e-06 2 4 3
0.0946961 1.96505e-06 1.96505e-06 2 4 3
0.094696 1.9601e-06 1.9601e-06 2 4 3
0.094696 1.95516e-06 1.95516e-06 2 4 3
0.0946959 1.95025e-06 1.95025e-06 2 4 3
0.0946959 1.94534e-06 1.94534e-06 2 4 3
0.0946958 1.94046e-06 1.94046e-06 2 4 3
0.0946958 1.93559e-06 1.93559e-06 2 4 3
0.0946957 1.93074e-06 1.93074e-06 2 4 3
0.0946956 1.92591e-06 1.92591e-06 2 4 3
0.0946956 1.9211e-06 1.9211e-06 2 4 3
0.0946955 1.9163e-06 1.9163e-06 2 4 3
0.0946955 1.91152e-06 1.91152e-06 2 4 3
0.0946954 1.90676e-06 1.90676e-06 2 4 3
0.0946954 1.90201e-06 1.90201e-06 2 4 3
0.0946953 1.89728e-06 1.89728e-06 2 4 3
0.0946953 1.89257e-06 1.89257e-06 2 4 3
0.0946952 1.88787e-06 1.88787e-06 2 4 3
0.0946952 1.88319e-06 1.88319e-06 2 4 3
0.0946951 1.87853e-06 1.87853e-06 2 4 3
0.0946951 1.87388e-06 1.87388e-06 2 4 3
0.094695 1.86925e-06 1.86925e-06 2 4 3
0.094695 1.86463e-06 1.86463e-06 2 4 3
0.0946949 1.86004e-06 1.86004e-06 2 4 3
0.0946948 1.85545e-06 1.85545e-06 2 4 3
0.0946948 1.85089e-06 1.85089e-06 2 4 3
0.0946947 1.84634e-06 1.84634e-06 2 4 3
0.0946947 1.8418e-06 1.8418e-06 2 4 3
0.0946946 1.83728e-06 1.83728e-06 2 4 3
0.0946946 1.83278e-06 1.83278e-06 2 4 3
0.0946945 1.82829e-06 1.82829e-06 2 4 3
0.0946945 1.82382e-06 1.82382e-06 2 4 3
0.0946944 1.81937e-06 1.81937e-06 2 4 3
0.0946944 1.81493e-06 1.81493e-06 2 4 3
0.0946943 1.8105e-06 1.8105e-06 2 4 3
0.0946943 1.80609e-06 1.80609e-06 2 4 3
0.0946942 1.8017e-06 1.8017e-06 2 4 3
0.0946942 1.79732e-06 1.79732e-06 2 4 3
0.0946941 1.79296e-06 1.79296e-06 2 4 3
0.0946941 1.78861e-06 1.78861e-06 2 4 3
0.094694 1.78427e-06 1.78427e-06 2 4 3
0.094694 1.77995e-06 1.77995e-06 2 4 3
0.0946939 1.77565e-06 1.77565e-06 2 4 3
0.0946939 1.77136e-06 1.77136e-06 2 4 3
0.0946938 1.76709e-06 1.76709e-06 2 4 3
0.0946938 1.76283e-06 1.76283e-06 2 4 3
0.0946937 1.75858e-06 1.75858e-06 2 4 3
0.0946937 1.75435e-06 1.75435e-06 2 4 3
0.0946936 1.75014e-06 1.75014e-06 2 4 3
0.0946936 1.74594e-06 1.74594e-06 2 4 3
0.0946935 1.74175e-06 1.74175e-06 2 4 3
0.0946935 1.73758e-06 1.73758e-06 2 4 3
0.0946934 1.73342e-06 1.73342e-06 2 4 3
0.0946934 1.72927e-06 1.72927e-06 2 4 3
0.0946933 1.72514e-06 1.72514e-06 2 4 3
0.0946933 1.72103e-06 1.72103e-06 2 4 3
0.0946932 1.71693e-06 1.71693e-06 2 4 3
0.0946932 1.71284e-06 1.71284e-06 2 4 3
0.0946931 1.70877e-06 1.70877e-06 2 4 3
0.0946931 1.70471e-06 1.70471e-06 2 4 3
0.094693 1.70066e-06 1.70066e-06 2 4 3
0.094693 1.69663e-06 1.69663e-06 2 4 3
0.0946929 1.69261e-06 1.69261e-06 2 4 3
0.0946929 1.6886e-06 1.6886e-06 2 4 3
0.0946928 1.68461e-06 1.68461e-06 2 4 3
0.0946928 1.68063e-06 1.68063e-06 2 4 3
0.0946927 1.67667e-06 1.67667e-06 2 4 3
0.0946927 1.67272e-06 1.67272e-06 2 4 3
0.0946926 1.66878e-06 1.66878e-06 2 4 3
0.0946926 1.66486e-06 1.66486e-06 2 4 3
0.0946925 1.66094e-06 1.66094e-06 2 4 3
0.0946925 1.65705e-06 1.65705e-06 2 4 3
0.0946924 1.65316e-06 1.65316e-06 2 4 3
0.0946924 1.64929e-06 1.64929e-06 2 4 3
0.0946923 1.64543e-06 1.64543e-06 2 4 3
0.0946923 1.64158e-06 1.64158e-06 2 4 3
0.0946922 1.63775e-06 1.63775e-06 2 4 3
0.0946922 1.63393e-06 1.63393e-06 2 4 3
0.0946921 1.63012e-06 1.63012e-06 2 4 3
0.0946921 1.62633e-06 1.62633e-06 2 4 3
0.0946921 1.62255e-06 1.62255e-06 2 4 3
0.094692 1.61878e-06 1.61878e-06 2 4 3
0.094692 1.61502e-06 1.61502e-06 2 4 3
0.0946919 1.61127e-06 1.61127e-06 2 4 3
0.0946919 1.60754e-06 1.60754e-06 2 4 3
0.0946918 1.60382e-06 1.60382e-06 2 4 3
0.0946918 1.60012e-06 1.60012e-06 2 4 3
0.0946917 1.59642e-06 1.59642e-06 2 4 3
0.0946917 1.59274e-06 1.59274e-06 2 4 3
0.0946916 1.58907e-06 1.58907e-06 2 4 3
0.0946916 1.58541e-06 1.58541e-06 2 4 3
0.0946915 1.58176e-06 1.58176e-06 2 4 3
0.0946915 1.57813e-06 1.57813e-06 2 4 3
0.0946914 1.57451e-06 1.57451e-06 2 4 3
0.0946914 1.5709e-06 1.5709e-06 2 4 3
0.0946914 1.5673e-06 1.5673e-06 2 4 3
0.0946913 1.56371e-06 1.56371e-06 2 4 3
0.0946913 1.56014e-06 1.56014e-06 2 4 3
0.0946912 1.55657e-06 1.55657e-06 2 4 3
0.0946912 1.55302e-06 1.55302e-06 2 4 3
0.0946911 1.54948e-06 1.54948e-06 2 4 3
0.0946911 1.54596e-06 1.54596e-06 2 4 3
0.094691 1.54244e-06 1.54244e-06 2 4 3
0.094691 1.53893e-06 1.53893e-06 2 4 3
0.0946909 1.53544e-06 1.53544e-06 2 4 3
0.0946909 1.53196e-06 1.53196e-06 2 4 3
0.0946908 1.52849e-06 1.52849e-06 2 4 3
0.0946908 1.52503e-06 1.52503e-06 2 4 3
0.0946908 1.52158e-06 1.52158e-06 2 4 3
0.0946907 1.51814e-06 1.51814e-06 2 4 3
0.0946907 1.51472e-06 1.51472e-06 2 4 3
0.0946906 1.5113e-06 1.5113e-06 2 4 3
0.0946906 1.5079e-06 1.5079e-06 2 4 3
0.0946905 1.50451e-06 1.50451e-06 2 4 3
0.0946905 1.50113e-06 1.50113e-06 2 4 3
0.0946904 1.49776e-06 1.49776e-06 2 4 3
0.0946904 1.4944e-06 1.4944e-06 2 4 3
0.0946904 1.49105e-06 1.49105e-06 2 4 3
0.0946903 1.48771e-06 1.48771e-06 2 4 3
0.0946903 1.48439e-06 1.48439e-06 2 4 3
0.0946902 1.48107e-06 1.48107e-06 2 4 3
0.0946902 1.47776e-06 1.47776e-06 2 4 3
0.0946901 1.47447e-06 1.47447e-06 2 4 3
0.0946901 1.47118e-06 1.47118e-06 2 4 3
0.09469 1.46791e-06 1.46791e-06 2 4 3
0.09469 1.46465e-06 1.46465e-06 2 4 3
0.09469 1.4614e-06 1.4614e-06 2 4 3
0.0946899 1.45815e-06 1.45815e-06 2 4 3
0.0946899 1.45492e-06 1.45492e-06 2 4 3
0.0946898 1.4517e-06 1.4517e-06 2 4 3
0.0946898 1.44849e-06 1.44849e-06 2 4 3
0.0946897 1.44529e-06 1.44529e-06 2 4 3
0.0946897 1.4421e-06 1.4421e-06 2 4 3
0.0946897 1.43892e-06 1.43892e-06 2 4 3
0.0946896 1.43575e-06 1.43575e-06 2 4 3
0.0946896 1.43259e-06 1.43259e-06 2 4 3
0.0946895 1.42944e-06 1.42944e-06 2 4 3
0.0946895 1.4263e-06 1.4263e-06 2 4 3
0.0946894 1.42317e-06 1.42317e-06 2 4 3
0.0946894 1.42005e-06 1.42005e-06 2 4 3
0.0946893 1.41694e-06 1.41694e-06 2 4 3
0.0946893 1.41384e-06 1.41384e-06 2 4 3
0.0946893 1.41075e-06 1.41075e-06 2 4 3
0.0946892 1.40767e-06 1.40767e-06 2 4 3
0.0946892 1.4046e-06 1.4046e-06 2 4 3
0.0946891 1.40153e-06 1.40153e-06 2 4 3
0.0946891 1.39848e-06 1.39848e-06 2 4 3
0.0946891 1.39544e-06 1.39544e-06 2 4 3
0.094689 1.39241e-06 1.39241e-06 2 4 3
0.094689 1.38939e-06 1.38939e-06 2 4 3
0.0946889 1.38637e-06 1.38637e-06 2 4 3
0.0946889 1.38337e-06 1.38337e-06 2 4 3
0.0946888 1.38037e-06 1.38037e-06 2 4 3
0.0946888 1.37739e-06 1.37739e-06 2 4 3
0.0946888 1.37441e-06 1.37441e-06 2 4 3
0.0946887 1.37145e-06 1.37145e-06 2 4 3
0.0946887 1.36849e-06 1.36849e-06 2 4 3
0.0946886 1.36554e-06 1.36554e-06 2 4 3
0.0946886 1.3626e-06 1.3626e-06 2 4 3
0.0946886 1.35968e-06 1.35968e-06 2 4 3
0.0946885 1.35676e-06 1.35676e-06 2 4 3
0.0946885 1.35384e-06 1.35384e-06 2 4 3
0.0946884 1.35094e-06 1.35094e-06 2 4 3
0.0946884 1.34805e-06 1.34805e-06 2 4 3
0.0946883 1.34517e-06 1.34517e-06 2 4 3
0.0946883 1.34229e-06 1.34229e-06 2 4 3
0.0946883 1.33943e-06 1.33943e-06 2 4 3
0.0946882 1.33657e-06 1.33657e-06 2 4 3
0.0946882 1.33372e-06 1.33372e-06 2 4 3
0.0946881 1.33088e-06 1.33088e-06 2 4 3
0.0946881 1.32805e-06 1.32805e-06 2 4 3
0.0946881 1.32523e-06 1.32523e-06 2 4 3
0.094688 1.32242e-06 1.32242e-06 2 4 3
0.094688 1.31961e-06 1.31961e-06 2 4 3
0.0946879 1.31682e-06 1.31682e-06 2 4 3
0.0946879 1.31403e-06 1.31403e-06 2 4 3
0.0946879 1.31125e-06 1.31125e-06 2 4 3
0.0946878 1.30848e-06 1.30848e-06 2 4 3
0.0946878 1.30572e-06 1.30572e-06 2 4 3
0.0946877 1.30297e-06 1.30297e-06 2 4 3
0.0946877 1.30022e-06 1.30022e-06 2 4 3
0.0946877 1.29749e-06 1.29749e-06 2 4 3
0.0946876 1.29476e-06 1.29476e-06 2 4 3
0.0946876 1.29204e-06 1.29204e-06 2 4 3
0.0946875 1.28933e-06 1.28933e-06 2 4 3
0.0946875 1.28663e-06 1.28663e-06 2 4 3
0.0946875 1.28393e-06 1.28393e-06 2 4 3
0.0946874 1.28125e-06 1.28125e-06 2 4 3
0.0946874 1.27857e-06 1.27857e-06 2 4 3
0.0946873 1.2759e-06 1.2759e-06 2 4 3
0.0946873 1.27324e-06 1.27324e-06 2 4 3
0.0946873 1.27058e-06 1.27058e-06 2 4 3
0.0946872 1.26794e-06 1.26794e-06 2 4 3
0.0946872 1.2653e-06 1.2653e-06 2 4 3
0.0946871 1.26267e-06 1.26267e-06 2 4 3
0.0946871 1.26005e-06 1.26005e-06 2 4 3
0.0946871 1.25744e-06 1.25744e-06 2 4 3
0.094687 1.25483e-06 1.25483e-06 2 4 3
0.094687 1.25223e-06 1.25223e-06 2 4 3
0.0946869 1.24964e-06 1.24964e-06 2 4 3
0.0946869 1.24706e-06 1.24706e-06 2 4 3
0.0946869 1.24449e-06 1.24449e-06 2 4 3
0.0946868 1.24192e-06 1.24192e-06 2 4 3
0.0946868 1.23936e-06 1.23936e-06 2 4 3
0.0946868 1.23681e-06 1.23681e-06 2 4 3
0.0946867 1.23427e-06 1.23427e-06 2 4 3
0.0946867 1.23173e-06 1.23173e-06 2 4 3
0.0946866 1.22921e-06 1.22921e-06 2 4 3
0.0946866 1.22669e-06 1.22669e-06 2 4 3
0.0946866 1.22417e-06 1.22417e-06 2 4 3
0.0946865 1.22167e-06 1.22167e-06 2 4 3
0.0946865 1.21917e-06 1.21917e-06 2 4 3
0.0946864 1.21668e-06 1.21668e-06 2 4 3
0.0946864 1.2142e-06 1.2142e-06 2 4 3
0.0946864 1.21172e-06 1.21172e-06 2 4 3
0.0946863 1.20926e-06 1.20926e-06 2 4 3
0.0946863 1.20679e-06 1.20679e-06 2 4 3
0.0946863 1.20434e-06 1.20434e-06 2 4 3
0.0946862 1.2019e-06 1.2019e-06 2 4 3
0.0946862 1.19946e-06 1.19946e-06 2 4 3
0.0946861 1.19703e-06 1.19703e-06 2 4 3
0.0946861 1.1946e-06 1.1946e-06 2 4 3
0.0946861 1.19219e-06 1.19219e-06 2 4 3
0.094686 1.18978e-06 1.18978e-06 2 4 3
0.094686 1.18737e-06 1.18737e-06 2 4 3
0.094686 1.18498e-06 1.18498e-06 2 4 3
0.0946859 1.18259e-06 1.18259e-06 2 4 3
0.0946859 1.18021e-06 1.18021e-06 2 4 3
0.0946859 1.17783e-06 1.17783e-06 2 4 3
0.0946858 1.17547e-06 1.17547e-06 2 4 3
0.0946858 1.17311e-06 1.17311e-06 2 4 3
0.0946857 1.17075e-06 1.17075e-06 2 4 3
0.0946857 1.16841e-06 1.16841e-06 2 4 3
0.0946857 1.16607e-06 1.16607e-06 2 4 3
0.0946856 1.16374e-06 1.16374e-06 2 4 3
0.0946856 1.16141e-06 1.16141e-06 2 4 3
0.0946856 1.15909e-06 1.15909e-06 2 4 3
0.0946855 1.15678e-06 1.15678e-06 2 4 3
0.0946855 1.15447e-06 1.15447e-06 2 4 3
0.0946854 1.15218e-06 1.15218e-06 2 4 3
0.0946854 1.14988e-06 1.14988e-06 2 4 3
0.0946854 1.1476e-06 1.1476e-06 2 4 3
0.0946853 1.14532e-06 1.14532e-06 2 4 3
0.0946853 1.14305e-06 1.14305e-06 2 4 3
0.0946853 1.14078e-06 1.14078e-06 2 4 3
0.0946852 1.13853e-06 1.13853e-06 2 4 3
0.0946852 1.13627e-06 1.13627e-06 2 4 3
0.0946852 1.13403e-06 1.13403e-06 2 4 3
0.0946851 1.13179e-06 1.13179e-06 2 4 3
0.0946851 1.12956e-06 1.12956e-06 2 4 3
0.0946851 1.12733e-06 1.12733e-06 2 4 3
0.094685 1.12511e-06 1.12511e-06 2 4 3
0.094685 1.1229e-06 1.1229e-06 2 4 3
0.0946849 1.12069e-06 1.12069e-06 2 4 3
0.0946849 1.1185e-06 1.1185e-06 2 4 3
0.0946849 1.1163e-06 1.1163e-06 2 4 3
0.0946848 1.11411e-06 1.11411e-06 2 4 3
0.0946848 1.11193e-06 1.11193e-06 2 4 3
0.0946848 1.10976e-06 1.10976e-06 2 4 3
0.0946847 1.10759e-06 1.10759e-06 2 4 3
0.0946847 1.10543e-06 1.10543e-06 2 4 3
0.0946847 1.10327e-06 1.10327e-06 2 4 3
0.0946846 1.10112e-06 1.10112e-06 2 4 3
0.0946846 1.09898e-06 1.09898e-06 2 4 3
0.0946846 1.09684e-06 1.09684e-06 2 4 3
0.0946845 1.09471e-06 1.09471e-06 2 4 3
0.0946845 1.09259e-06 1.09259e-06 2 4 3
0.0946845 1.09047e-06 1.09047e-06 2 4 3
0.0946844 1.08836e-06 1.08836e-06 2 4 3
0.0946844 1.08625e-06 1.08625e-06 2 4 3
0.0946843 1.08415e-06 1.08415e-06 2 4 3
0.0946843 1.08205e-06 1.08205e-06 2 4 3
0.0946843 1.07996e-06 1.07996e-06 2 4 3
0.0946842 1.07788e-06 1.07788e-06 2 4 3
0.0946842 1.07581e-06 1.07581e-06 2 4 3
0.0946842 1.07373e-06 1.07373e-06 2 4 3
0.0946841 1.07167e-06 1.07167e-06 2 4 3
0.0946841 1.06961e-06 1.06961e-06 2 4 3
0.0946841 1.06756e-06 1.06756e-06 2 4 3
0.094684 1.06551e-06 1.06551e-06 2 4 3
0.094684 1.06347e-06 1.06347e-06 2 4 3
0.094684 1.06143e-06 1.06143e-06 2 4 3
0.0946839 1.0594e-06 1.0594e-06 2 4 3
0.0946839 1.05738e-06 1.05738e-06 2 4 3
0.0946839 1.05536e-06 1.05536e-06 2 4 3
0.0946838 1.05335e-06 1.05335e-06 2 4 3
0.0946838 1.05134e-06 1.05134e-06 2 4 3
0.0946838 1.04934e-06 1.04934e-06 2 4 3
0.0946837 1.04734e-06 1.04734e-06 2 4 3
0.0946837 1.04535e-06 1.04535e-06 2 4 3
0.0946837 1.04337e-06 1.04337e-06 2 4 3
0.0946836 1.04139e-06 1.04139e-06 2 4 3
0.0946836 1.03942e-06 1.03942e-06 2 4 3
0.0946836 1.03745e-06 1.03745e-06 2 4 3
0.0946835 1.03549e-06 1.03549e-06 2 4 3
0.0946835 1.03353e-06 1.03353e-06 2 4 3
0.0946835 1.03158e-06 1.03158e-06 2 4 3
0.0946834 1.02963e-06 1.02963e-06 2 4 3
0.0946834 1.02769e-06 1.02769e-06 2 4 3
0.0946834 1.02576e-06 1.02576e-06 2 4 3
0.0946833 1.02383e-06 1.02383e-06 2 4 3
0.0946833 1.0219e-06 1.0219e-06 2 4 3
0.0946833 1.01999e-06 1.01999e-06 2 4 3
0.0946832 1.01807e-06 1.01807e-06 2 4 3
0.0946832 1.01616e-06 1.01616e-06 2 4 3
0.0946832 1.01426e-06 1.01426e-06 2 4 3
0.0946831 1.01236e-06 1.01236e-06 2 4 3
0.0946831 1.01047e-06 1.01047e-06 2 4 3
0.0946831 1.00859e-06 1.00859e-06 2 4 3
0.094683 1.0067e-06 1.0067e-06 2 4 3
0.094683 1.00483e-06 1.00483e-06 2 4 3
0.094683 1.00296e-06 1.00296e-06 2 4 3
0.0946829 1.00109e-06 1.00109e-06 2 4 3
0.0946829 9.99231e-07 9.99231e-07 2 4 3
0.0946829 9.97375e-07 9.97375e-07 2 4 3
0.0946828 9.95525e-07 9.95525e-07 2 4 3
0.0946828 9.93679e-07 9.93679e-07 2 4 3
0.0946828 9.91839e-07 9.91839e-07 2 4 3
0.0946828 9.90004e-07 9.90004e-07 2 4 3
0.0946827 9.88174e-07 9.88174e-07 2 4 3
0.0946827 9.86349e-07 9.86349e-07 2 4 3
0.0946827 9.84529e-07 9.84529e-07 2 4 3
0.0946826 9.82714e-07 9.82714e-07 2 4 3
0.0946826 9.80904e-07 9.80904e-07 2 4 3
0.0946826 9.79099e-07 9.79099e-07 2 4 3
0.0946825 9.77299e-07 9.77299e-07 2 4 3
0.0946825 9.75504e-07 9.75504e-07 2 4 3
0.0946825 9.73714e-07 9.73714e-07 2 4 3
0.0946824 9.71928e-07 9.71928e-07 2 4 3
0.0946824 9.70148e-07 9.70148e-07 2 4 3
0.0946824 9.68372e-07 9.68372e-07 2 4 3
0.0946823 9.66602e-07 9.66602e-07 2 4 3
0.0946823 9.64836e-07 9.64836e-07 2 4 3
0.0946823 9.63075e-07 9.63075e-07 2 4 3
0.0946822 9.61319e-07 9.61319e-07 2 4 3
0.0946822 9.59567e-07 9.59567e-07 2 4 3
0.0946822 9.57821e-07 9.57821e-07 2 4 3
0.0946822 9.56079e-07 9.56079e-07 2 4 3
0.0946821 9.54342e-07 9.54342e-07 2 4 3
0.0946821 9.52609e-07 9.52609e-07 2 4 3
0.0946821 9.50882e-07 9.50882e-07 2 4 3
0.094682 9.49159e-07 9.49159e-07 2 4 3
0.094682 9.4744e-07 9.4744e-07 2 4 3
0.094682 9.45727e-07 9.45727e-07 2 4 3
0.0946819 9.44018e-07 9.44018e-07 2 4 3
0.0946819 9.42313e-07 9.42313e-07 2 4 3
0.0946819 9.40614e-07 9.40614e-07 2 4 3
0.0946818 9.38918e-07 9.38918e-07 2 4 3
0.0946818 9.37228e-07 9.37228e-07 2 4 3
0.0946818 9.35542e-07 9.35542e-07 2 4 3
0.0946818 9.3386e-07 9.3386e-07 2 4 3
0.0946817 9.32183e-07 9.32183e-07 2 4 3
0.0946817 9.30511e-07 9.30511e-07 2 4 3
0.0946817 9.28843e-07 9.28843e-07 2 4 3
0.0946816 9.27179e-07 9.27179e-07 2 4 3
0.0946816 9.2552e-07 9.2552e-07 2 4 3
0.0946816 9.23866e-07 9.23866e-07 2 4 3
0.0946815 9.22216e-07 9.22216e-07 2 4 3
0.0946815 9.2057e-07 9.2057e-07 2 4 3
0.0946815 9.18929e-07 9.18929e-07 2 4 3
0.0946814 9.17292e-07 9.17292e-07 2 4 3
0.0946814 9.15659e-07 9.15659e-07 2 4 3
0.0946814 9.14031e-07 9.14031e-07 2 4 3
0.0946814 9.12407e-07 9.12407e-07 2 4 3
0.0946813 9.10788e-07 9.10788e-07 2 4 3
0.0946813 9.09173e-07 9.09173e-07 2 4 3
0.0946813 9.07562e-07 9.07562e-07 2 4 3
0.0946812 9.05956e-07 9.05956e-07 2 4 3
0.0946812 9.04353e-07 9.04353e-07 2 4 3
0.0946812 9.02755e-07 9.02755e-07 2 4 3
0.0946811 9.01162e-07 9.01162e-07 2 4 3
0.0946811 8.99572e-07 8.99572e-07 2 4 3
0.0946811 8.97987e-07 8.97987e-07 2 4 3
0.0946811 8.96406e-07 8.96406e-07 2 4 3
0.094681 8.94829e-07 8.94829e-07 2 4 3
0.094681 8.93256e-07 8.93256e-07 2 4 3
0.094681 8.91688e-07 8.91688e-07 2 4 3
0.0946809 8.90123e-07 8.90123e-07 2 4 3
0.0946809 8.88563e-07 8.88563e-07 2 4 3
0.0946809 8.87007e-07 8.87007e-07 2 4 3
0.0946809 8.85455e-07 8.85455e-07 2 4 3
0.0946808 8.83907e-07 8.83907e-07 2 4 3
0.0946808 8.82363e-07 8.82363e-07 2 4 3
0.0946808 8.80823e-07 8.80823e-07 2 4 3
0.0946807 8.79287e-07 8.79287e-07 2 4 3
0.0946807 8.77756e-07 8.77756e-07 2 4 3
0.0946807 8.76228e-07 8.76228e-07 2 4 3
0.0946807 8.74704e-07 8.74704e-07 2 4 3
0.0946806 8.73185e-07 8.73185e-07 2 4 3
0.0946806 8.71669e-07 8.71669e-07 2 4 3
0.0946806 8.70157e-07 8.70157e-07 2 4 3
0.0946805 8.68649e-07 8.68649e-07 2 4 3
0.0946805 8.67146e-07 8.67146e-07 2 4 3
0.0946805 8.65646e-07 8.65646e-07 2 4 3
0.0946805 8.6415e-07 8.6415e-07 2 4 3
0.0946804 8.62658e-07 8.62658e-07 2 4 3
0.0946804 8.6117e-07 8.6117e-07 2 4 3
0.0946804 8.59685e-07 8.59685e-07 2 4 3
0.0946803 8.58205e-07 8.58205e-07 2 4 3
0.0946803 8.56728e-07 8.56728e-07 2 4 3
0.0946803 8.55256e-07 8.55256e-07 2 4 3
0.0946803 8.53787e-07 8.53787e-07 2 4 3
0.0946802 8.52322e-07 8.52322e-07 2 4 3
0.0946802 8.5086e-07 8.5086e-07 2 4 3
0.0946802 8.49403e-07 8.49403e-07 2 4 3
0.0946801 8.47949e-07 8.47949e-07 2 4 3
0.0946801 8.46499e-07 8.46499e-07 2 4 3
0.0946801 8.45053e-07 8.45053e-07 2 4 3
0.0946801 8.4361e-07 8.4361e-07 2 4 3
0.09468 8.42172e-07 8.42172e-07 2 4 3
0.09468 8.40737e-07 8.40737e-07 2 4 3
0.09468 8.39305e-07 8.39305e-07 2 4 3
0.0946799 8.37878e-07 8.37878e-07 2 4 3
0.0946799 8.36454e-07 8.36454e-07 2 4 3
0.0946799 8.35034e-07 8.35034e-07 2 4 3
0.0946799 8.33617e-07 8.33617e-07 2 4 3
0.0946798 8.32204e-07 8.32204e-07 2 4 3
0.0946798 8.30795e-07 8.30795e-07 2 4 3
0.0946798 8.29389e-07 8.29389e-07 2 4 3
0.0946798 8.27987e-07 8.27987e-07 2 4 3
0.0946797 8.26588e-07 8.26588e-07 2 4 3
0.0946797 8.25193e-07 8.25193e-07 2 4 3
0.0946797 8.23802e-07 8.23802e-07 2 4 3
0.0946796 8.22414e-07 8.22414e-07 2 4 3
0.0946796 8.2103e-07 8.2103e-07 2 4 3
0.0946796 8.19649e-07 8.19649e-07 2 4 3
0.0946796 8.18272e-07 8.18272e-07 2 4 3
0.0946795 8.16899e-07 8.16899e-07 2 4 3
0.0946795 8.15528e-07 8.15528e-07 2 4 3
0.0946795 8.14162e-07 8.14162e-07 2 4 3
0.0946794 8.12799e-07 8.12799e-07 2 4 3
0.0946794 8.11439e-07 8.11439e-07 2 4 3
0.0946794 8.10083e-07 8.10083e-07 2 4 3
0.0946794 8.0873e-07 8.0873e-07 2 4 3
0.0946793 8.0738e-07 8.0738e-07 2 4 3
0.0946793 8.06034e-07 8.06034e-07 2 4 3
0.0946793 8.04692e-07 8.04692e-07 2 4 3
0.0946793 8.03353e-07 8.03353e-07 2 4 3
0.0946792 8.02017e-07 8.02017e-07 2 4 3
0.0946792 8.00685e-07 8.00685e-07 2 4 3
0.0946792 7.99356e-07 7.99356e-07 2 4 3
0.0946792 7.9803e-07 7.9803e-07 2 4 3
0.0946791 7.96708e-07 7.96708e-07 2 4 3
0.0946791 7.95389e-07 7.95389e-07 2 4 3
0.0946791 7.94073e-07 7.94073e-07 2 4 3
0.094679 7.92761e-07 7.92761e-07 2 4 3
0.094679 7.91452e-07 7.91452e-07 2 4 3
0.094679 7.90146e-07 7.90146e-07 2 4 3
0.094679 7.88844e-07 7.88844e-07 2 4 3
0.0946789 7.87544e-07 7.87544e-07 2 4 3
0.0946789 7.86249e-07 7.86249e-07 2 4 3
0.0946789 7.84956e-07 7.84956e-07 2 4 3
0.0946789 7.83667e-07 7.83667e-07 2 4 3
0.0946788 7.8238e-07 7.8238e-07 2 4 3
0.0946788 7.81097e-07 7.81097e-07 2 4 3
0.0946788 7.79818e-07 7.79818e-07 2 4 3
0.0946788 7.78541e-07 7.78541e-07 2 4 3
0.0946787 7.77268e-07 7.77268e-07 2 4 3
0.0946787 7.75998e-07 7.75998e-07 2 4 3
0.0946787 7.74731e-07 7.74731e-07 2 4 3
0.0946787 7.73467e-07 7.73467e-07 2 4 3
0.0946786 7.72206e-07 7.72206e-07 2 4 3
0.0946786 7.70949e-07 7.70949e-07 2 4 3
0.0946786 7.69694e-07 7.69694e-07 2 4 3
0.0946786 7.68443e-07 7.68443e-07 2 4 3
0.0946785 7.67195e-07 7.67195e-07 2 4 3
0.0946785 7.6595e-07 7.6595e-07 2 4 3
0.0946785 7.64708e-07 7.64708e-07 2 4 3
0.0946784 7.63469e-07 7.63469e-07 2 4 3
0.0946784 7.62233e-07 7.62233e-07 2 4 3
0.0946784 7.61e-07 7.61e-07 2 4 3
0.0946784 7.5977e-07 7.5977e-07 2 4 3
0.0946783 7.58544e-07 7.58544e-07 2 4 3
0.0946783 7.5732e-07 7.5732e-07 2 4 3
0.0946783 7.56099e-07 7.56099e-07 2 4 3
0.0946783 7.54882e-07 7.54882e-07 2 4 3
0.0946782 7.53667e-07 7.53667e-07 2 4 3
0.0946782 7.52455e-07 7.52455e-07 2 4 3
0.0946782 7.51247e-07 7.51247e-07 2 4 3
0.0946782 7.50041e-07 7.50041e-07 2 4 3
0.0946781 7.48838e-07 7.48838e-07 2 4 3
0.0946781 7.47639e-07 7.47639e-07 2 4 3
0.0946781 7.46442e-07 7.46442e-07 2 4 3
0.0946781 7.45248e-07 7.45248e-07 2 4 3
0.094678 7.44057e-07 7.44057e-07 2 4 3
0.094678 7.42869e-07 7.42869e-07 2 4 3
0.094678 7.41684e-07 7.41684e-07 2 4 3
0.094678 7.40502e-07 7.40502e-07 2 4 3
