0.193887 -0.00520062 -0.00520062 2 2 3
0.193871 -0.0053944 -0.0053944 2 2 3
0.193854 -0.00558813 -0.00558813 2 2 3
0.193836 -0.00578181 -0.00578181 2 2 3
0.193818 -0.00597542 -0.00597542 2 2 3
0.193799 -0.00616898 -0.00616898 2 2 3
0.193779 -0.00636247 -0.00636247 2 2 3
0.193759 -0.0065559 -0.0065559 2 2 3
0.193739 -0.00674926 -0.00674926 2 2 3
0.193718 -0.00694256 -0.00694256 2 2 3
0.193696 -0.00713578 -0.00713578 2 2 3
0.193674 -0.00732893 -0.00732893 2 2 3
0.193651 -0.00752201 -0.00752201 2 2 3
0.193627 -0.00771501 -0.00771501 2 2 3
0.193603 -0.00790793 -0.00790793 2 2 3
0.193578 -0.00810077 -0.00810077 2 2 3
0.193553 -0.00829353 -0.00829353 2 2 3
0.193527 -0.0084862 -0.0084862 2 2 3
0.193501 -0.00867879 -0.00867879 2 2 3
0.193474 -0.00887129 -0.00887129 2 2 3
0.193446 -0.0090637 -0.0090637 2 2 3
0.193418 -0.00925602 -0.00925602 2 2 3
0.193389 -0.00944824 -0.00944824 2 2 3
0.19336 -0.00964036 -0.00964036 2 2 3
0.19333 -0.00983239 -0.00983239 2 2 3
0.1933 -0.0100243 -0.0100243 2 2 3
0.193269 -0.0102161 -0.0102161 2 2 3
0.193237 -0.0104079 -0.0104079 2 2 3
0.193205 -0.0105995 -0.0105995 2 2 3
0.193172 -0.010791 -0.010791 2 2 3
0.193139 -0.0109824 -0.0109824 2 2 3
0.193105 -0.0111736 -0.0111736 2 2 3
0.19307 -0.0113648 -0.0113648 2 2 3
0.193035 -0.0115559 -0.0115559 2 2 3
0.193 -0.0117468 -0.0117468 2 2 3
0.192963 -0.0119376 -0.0119376 2 2 3
0.192927 -0.0121283 -0.0121283 2 2 3
0.192889 -0.0123189 -0.0123189 2 2 3
0.192851 -0.0125093 -0.0125093 2 2 3
0.192813 -0.0126996 -0.0126996 2 2 3
0.192774 -0.0128898 -0.0128898 2 2 3
0.192734 -0.0130798 -0.0130798 2 2 3
0.192694 -0.0132697 -0.0132697 2 2 3
0.192653 -0.0134595 -0.0134595 2 2 3
0.192612 -0.0136492 -0.0136492 2 2 3
0.19257 -0.0138387 -0.0138387 2 2 3
0.192527 -0.014028 -0.014028 2 2 3
0.192484 -0.0142172 -0.0142172 2 2 3
0.192441 -0.0144063 -0.0144063 2 2 3
0.192397 -0.0145952 -0.0145952 2 2 3
0.192352 -0.014784 -0.014784 2 2 3
0.192307 -0.0149726 -0.0149726 2 2 3
0.192261 -0.0151611 -0.0151611 2 2 3
0.192215 -0.0153494 -0.0153494 2 2 3
0.192168 -0.0155375 -0.0155375 2 2 3
0.19212 -0.0157255 -0.0157255 2 2 3
0.192072 -0.0159133 -0.0159133 2 2 3
0.192023 -0.016101 -0.016101 2 2 3
0.191974 -0.0162885 -0.0162885 2 2 3
0.191925 -0.0164758 -0.0164758 2 2 3
0.191874 -0.016663 -0.016663 2 2 3
0.191823 -0.01685 -0.01685 2 2 3
0.191772 -0.0170368 -0.0170368 2 2 3
0.19172 -0.0172235 -0.0172235 2 2 3
0.191668 -0.0174099 -0.0174099 2 2 3
0.191615 -0.0175962 -0.0175962 2 2 3
0.191561 -0.0177824 -0.0177824 2 2 3
0.191507 -0.0179683 -0.0179683 2 2 3
0.191452 -0.018154 -0.018154 2 2 3
0.191397 -0.0183396 -0.0183396 2 2 3
0.191342 -0.018525 -0.018525 2 2 3
0.191285 -0.0187101 -0.0187101 2 2 3
0.191228 -0.0188951 -0.0188951 2 2 3
0.191171 -0.0190799 -0.0190799 2 2 3
0.191113 -0.0192645 -0.0192645 2 2 3
0.191055 -0.019449 -0.019449 2 2 3
0.190996 -0.0196332 -0.0196332 2 2 3
0.190936 -0.0198172 -0.0198172 2 2 3
0.190876 -0.020001 -0.020001 2 2 3
0.190816 -0.0201846 -0.0201846 2 2 3
0.190755 -0.020368 -0.020368 2 2 3
0.190693 -0.0205512 -0.0205512 2 2 3
0.190631 -0.0207341 -0.0207341 2 2 3
0.190568 -0.0209169 -0.0209169 2 2 3
0.190505 -0.0210995 -0.0210995 2 2 3
0.190441 -0.0212818 -0.0212818 2 2 3
0.190377 -0.0214639 -0.0214639 2 2 3
0.190312 -0.0216458 -0.0216458 2 2 3
0.190247 -0.0218275 -0.0218275 2 2 3
0.190181 -0.022009 -0.022009 2 2 3
0.190115 -0.0221902 -0.0221902 2 2 3
0.190048 -0.0223712 -0.0223712 2 2 3
0.189981 -0.022552 -0.022552 2 2 3
0.189913 -0.0227325 -0.0227325 2 2 3
0.189844 -0.0229129 -0.0229129 2 2 3
0.189775 -0.023093 -0.023093 2 2 3
0.189706 -0.0232728 -0.0232728 2 2 3
0.189636 -0.0234524 -0.0234524 2 2 3
0.189566 -0.0236318 -0.0236318 2 2 3
0.189495 -0.023811 -0.023811 2 2 3
0.189423 -0.0239899 -0.0239899 2 2 3
0.189351 -0.0241685 -0.0241685 2 2 3
0.189279 -0.0243469 -0.0243469 2 2 3
0.189206 -0.0245251 -0.0245251 2 2 3
0.189132 -0.024703 -0.024703 2 2 3
0.189059 -0.0248807 -0.0248807 2 2 3
0.188984 -0.0250581 -0.0250581 2 2 3
0.188909 -0.0252353 -0.0252353 2 2 3
0.188834 -0.0254122 -0.0254122 2 2 3
0.188758 -0.0255888 -0.0255888 2 2 3
0.188681 -0.0257652 -0.0257652 2 2 3
0.188604 -0.0259414 -0.0259414 2 2 3
0.188527 -0.0261173 -0.0261173 2 2 3
0.188449 -0.0262929 -0.0262929 2 2 3
0.188371 -0.0264682 -0.0264682 2 2 3
0.188292 -0.0266433 -0.0266433 2 2 3
0.188212 -0.0268181 -0.0268181 2 2 3
0.188133 -0.0269927 -0.0269927 2 2 3
0.188052 -0.0271669 -0.0271669 2 2 3
0.187971 -0.0273409 -0.0273409 2 2 3
0.18789 -0.0275147 -0.0275147 2 2 3
0.187808 -0.0276881 -0.0276881 2 2 3
0.187726 -0.0278613 -0.0278613 2 2 3
0.187643 -0.0280342 -0.0280342 2 2 3
0.18756 -0.0282068 -0.0282068 2 2 3
0.187477 -0.0283791 -0.0283791 2 2 3
0.187393 -0.0285512 -0.0285512 2 2 3
0.187308 -0.028723 -0.028723 2 2 3
0.187223 -0.0288944 -0.0288944 2 2 3
0.187137 -0.0290656 -0.0290656 2 2 3
0.187051 -0.0292365 -0.0292365 2 2 3
0.186965 -0.0294072 -0.0294072 2 2 3
0.186878 -0.0295775 -0.0295775 2 2 3
0.186791 -0.0297475 -0.0297475 2 2 3
0.186703 -0.0299172 -0.0299172 2 2 3
0.186615 -0.0300867 -0.0300867 2 2 3
0.186526 -0.0302558 -0.0302558 2 2 3
0.186437 -0.0304246 -0.0304246 2 2 3
0.186347 -0.0305932 -0.0305932 2 2 3
0.186257 -0.0307614 -0.0307614 2 2 3
0.186167 -0.0309293 -0.0309293 2 2 3
0.186076 -0.0310969 -0.0310969 2 2 3
0.185984 -0.0312643 -0.0312643 2 2 3
0.185892 -0.0314313 -0.0314313 2 2 3
0.1858 -0.031598 -0.031598 2 2 3
0.185707 -0.0317643 -0.0317643 2 2 3
0.185614 -0.0319304 -0.0319304 2 2 3
0.185521 -0.0320962 -0.0320962 2 2 3
0.185427 -0.0322616 -0.0322616 2 2 3
0.185332 -0.0324268 -0.0324268 2 2 3
0.185237 -0.0325916 -0.0325916 2 2 3
0.185142 -0.032756 -0.032756 2 2 3
0.185046 -0.0329202 -0.0329202 2 2 3
0.18495 -0.0330841 -0.0330841 2 2 3
0.184854 -0.0332476 -0.0332476 2 2 3
0.184757 -0.0334108 -0.0334108 2 2 3
0.184659 -0.0335737 -0.0335737 2 2 3
0.184561 -0.0337362 -0.0337362 2 2 3
0.184463 -0.0338984 -0.0338984 2 2 3
0.184364 -0.0340603 -0.0340603 2 2 3
0.184265 -0.0342219 -0.0342219 2 2 3
0.184166 -0.0343831 -0.0343831 2 2 3
0.184066 -0.034544 -0.034544 2 2 3
0.183966 -0.0347045 -0.0347045 2 2 3
0.183865 -0.0348648 -0.0348648 2 2 3
0.183764 -0.0350246 -0.0350246 2 2 3
0.183662 -0.0351842 -0.0351842 2 2 3
0.18356 -0.0353434 -0.0353434 2 2 3
0.183458 -0.0355022 -0.0355022 2 2 3
0.183355 -0.0356608 -0.0356608 2 2 3
0.183252 -0.0358189 -0.0358189 2 2 3
0.183149 -0.0359768 -0.0359768 2 2 3
0.183045 -0.0361343 -0.0361343 2 2 3
0.182941 -0.0362914 -0.0362914 2 2 3
0.182836 -0.0364482 -0.0364482 2 2 3
0.182731 -0.0366046 -0.0366046 2 2 3
0.182626 -0.0367607 -0.0367607 2 2 3
0.18252 -0.0369165 -0.0369165 2 2 3
0.182414 -0.0370718 -0.0370718 2 2 3
0.182307 -0.0372269 -0.0372269 2 2 3
0.1822 -0.0373816 -0.0373816 2 2 3
0.182093 -0.0375359 -0.0375359 2 2 3
0.181985 -0.0376898 -0.0376898 2 2 3
0.181877 -0.0378435 -0.0378435 2 2 3
0.181769 -0.0379967 -0.0379967 2 2 3
0.18166 -0.0381496 -0.0381496 2 2 3
0.181551 -0.0383021 -0.0383021 2 2 3
0.181441 -0.0384543 -0.0384543 2 2 3
0.181332 -0.0386061 -0.0386061 2 2 3
0.181221 -0.0387575 -0.0387575 2 2 3
0.181111 -0.0389086 -0.0389086 2 2 3
0.181 -0.0390593 -0.0390593 2 2 3
0.180889 -0.0392096 -0.0392096 2 2 3
0.180777 -0.0393596 -0.0393596 2 2 3
0.180665 -0.0395092 -0.0395092 2 2 3
0.180553 -0.0396584 -0.0396584 2 2 3
0.18044 -0.0398073 -0.0398073 2 2 3
0.180327 -0.0399558 -0.0399558 2 2 3
0.180214 -0.0401039 -0.0401039 2 2 3
0.1801 -0.0402517 -0.0402517 2 2 3
0.179986 -0.040399 -0.040399 2 2 3
0.179872 -0.040546 -0.040546 2 2 3
0.179757 -0.0406926 -0.0406926 2 2 3
0.179642 -0.0408389 -0.0408389 2 2 3
0.179527 -0.0409847 -0.0409847 2 2 3
0.179411 -0.0411302 -0.0411302 2 2 3
0.179295 -0.0412753 -0.0412753 2 2 3
0.179179 -0.04142 -0.04142 2 2 3
0.179062 -0.0415643 -0.0415643 2 2 3
0.178945 -0.0417083 -0.0417083 2 2 3
0.178828 -0.0418519 -0.0418519 2 2 3
0.17871 -0.0419951 -0.0419951 2 2 3
0.178593 -0.0421378 -0.0421378 2 2 3
0.178474 -0.0422803 -0.0422803 2 2 3
0.178356 -0.0424223 -0.0424223 2 2 3
0.178237 -0.0425639 -0.0425639 2 2 3
0.178118 -0.0427052 -0.0427052 2 2 3
0.177999 -0.042846 -0.042846 2 2 3
0.177879 -0.0429865 -0.0429865 2 2 3
0.177759 -0.0431266 -0.0431266 2 2 3
0.177638 -0.0432663 -0.0432663 2 2 3
0.177518 -0.0434056 -0.0434056 2 2 3
0.177397 -0.0435445 -0.0435445 2 2 3
0.177276 -0.043683 -0.043683 2 2 3
0.177154 -0.0438211 -0.0438211 2 2 3
0.177033 -0.0439588 -0.0439588 2 2 3
0.176911 -0.0440962 -0.0440962 2 2 3
0.176788 -0.0442331 -0.0442331 2 2 3
0.176666 -0.0443696 -0.0443696 2 2 3
0.176543 -0.0445058 -0.0445058 2 2 3
0.17642 -0.0446415 -0.0446415 2 2 3
0.176296 -0.0447768 -0.0447768 2 2 3
0.176172 -0.0449118 -0.0449118 2 2 3
0.176048 -0.0450463 -0.0450463 2 2 3
0.175924 -0.0451805 -0.0451805 2 2 3
0.1758 -0.0453142 -0.0453142 2 2 3
0.175675 -0.0454475 -0.0454475 2 2 3
0.17555 -0.0455805 -0.0455805 2 2 3
0.175425 -0.045713 -0.045713 2 2 3
0.175299 -0.0458451 -0.0458451 2 2 3
0.175173 -0.0459769 -0.0459769 2 2 3
0.175047 -0.0461082 -0.0461082 2 2 3
0.174921 -0.0462391 -0.0462391 2 2 3
0.174794 -0.0463696 -0.0463696 2 2 3
0.174668 -0.0464997 -0.0464997 2 2 3
0.174541 -0.0466294 -0.0466294 2 2 3
0.174413 -0.0467587 -0.0467587 2 2 3
0.174286 -0.0468876 -0.0468876 2 2 3
0.174158 -0.0470161 -0.0470161 2 2 3
0.17403 -0.0471441 -0.0471441 2 2 3
0.173902 -0.0472718 -0.0472718 2 2 3
0.173773 -0.0473991 -0.0473991 2 2 3
0.173645 -0.0475259 -0.0475259 2 2 3
0.173516 -0.0476523 -0.0476523 2 2 3
0.173387 -0.0477783 -0.0477783 2 2 3
0.173257 -0.047904 -0.047904 2 2 3
0.173128 -0.0480292 -0.0480292 2 2 3
0.172998 -0.0481539 -0.0481539 2 2 3
0.172868 -0.0482783 -0.0482783 2 2 3
0.172737 -0.0484023 -0.0484023 2 2 3
0.172607 -0.0485258 -0.0485258 2 2 3
0.172476 -0.048649 -0.048649 2 2 3
0.172345 -0.0487717 -0.0487717 2 2 3
0.172214 -0.048894 -0.048894 2 2 3
0.172083 -0.0490159 -0.0490159 2 2 3
0.171952 -0.0491374 -0.0491374 2 2 3
0.17182 -0.0492584 -0.0492584 2 2 3
0.171688 -0.0493791 -0.0493791 2 2 3
0.171556 -0.0494993 -0.0494993 2 2 3
0.171424 -0.0496191 -0.0496191 2 2 3
0.171291 -0.0497385 -0.0497385 2 2 3
0.171158 -0.0498575 -0.0498575 2 2 3
0.171026 -0.0499761 -0.0499761 2 2 3
0.170892 -0.0500943 -0.0500943 2 2 3
0.170759 -0.050212 -0.050212 2 2 3
0.170626 -0.0503293 -0.0503293 2 2 3
0.170492 -0.0504462 -0.0504462 2 2 3
0.170358 -0.0505627 -0.0505627 2 2 3
0.170224 -0.0506788 -0.0506788 2 2 3
0.17009 -0.0507944 -0.0507944 2 2 3
0.169956 -0.0509097 -0.0509097 2 2 3
0.169822 -0.0510245 -0.0510245 2 2 3
0.169687 -0.0511389 -0.0511389 2 2 3
0.169552 -0.0512529 -0.0512529 2 2 3
0.169417 -0.0513664 -0.0513664 2 2 3
0.169282 -0.0514796 -0.0514796 2 2 3
0.169147 -0.0515923 -0.0515923 2 2 3
0.169011 -0.0517046 -0.0517046 2 2 3
0.168876 -0.0518165 -0.0518165 2 2 3
0.16874 -0.051928 -0.051928 2 2 3
0.168604 -0.052039 -0.052039 2 2 3
0.168468 -0.0521497 -0.0521497 2 2 3
0.168332 -0.0522599 -0.0522599 2 2 3
0.168195 -0.0523697 -0.0523697 2 2 3
0.168059 -0.052479 -0.052479 2 2 3
0.167922 -0.052588 -0.052588 2 2 3
0.167785 -0.0526965 -0.0526965 2 2 3
0.167648 -0.0528046 -0.0528046 2 2 3
0.167511 -0.0529123 -0.0529123 2 2 3
0.167374 -0.0530196 -0.0530196 2 2 3
0.167237 -0.0531265 -0.0531265 2 2 3
0.167099 -0.0532329 -0.0532329 2 2 3
0.166962 -0.0533389 -0.0533389 2 2 3
0.166824 -0.0534445 -0.0534445 2 2 3
0.166686 -0.0535497 -0.0535497 2 2 3
0.166548 -0.0536545 -0.0536545 2 2 3
0.16641 -0.0537588 -0.0537588 2 2 3
0.166272 -0.0538627 -0.0538627 2 2 3
0.166133 -0.0539662 -0.0539662 2 2 3
0.165995 -0.0540693 -0.0540693 2 2 3
0.165856 -0.054172 -0.054172 2 2 3
0.165718 -0.0542743 -0.0542743 2 2 3
0.165579 -0.0543761 -0.0543761 2 2 3
0.16544 -0.0544775 -0.0544775 2 2 3
0.165301 -0.0545785 -0.0545785 2 2 3
0.165162 -0.0546791 -0.0546791 2 2 3
0.165023 -0.0547792 -0.0547792 2 2 3
0.164883 -0.054879 -0.054879 2 2 3
0.164744 -0.0549783 -0.0549783 2 2 3
0.164604 -0.0550772 -0.0550772 2 2 3
0.164465 -0.0551757 -0.0551757 2 2 3
0.164325 -0.0552737 -0.0552737 2 2 3
0.164185 -0.0553714 -0.0553714 2 2 3
0.164045 -0.0554686 -0.0554686 2 2 3
0.163905 -0.0555654 -0.0555654 2 2 3
0.163765 -0.0556618 -0.0556618 2 2 3
0.163625 -0.0557578 -0.0557578 2 2 3
0.163485 -0.0558534 -0.0558534 2 2 3
0.163345 -0.0559485 -0.0559485 2 2 3
0.163204 -0.0560433 -0.0560433 2 2 3
0.163064 -0.0561376 -0.0561376 2 2 3
0.162924 -0.0562315 -0.0562315 2 2 3
0.162783 -0.056325 -0.056325 2 2 3
0.162642 -0.0564181 -0.0564181 2 2 3
0.162502 -0.0565108 -0.0565108 2 2 3
0.162361 -0.056603 -0.056603 2 2 3
0.16222 -0.0566948 -0.0566948 2 2 3
0.162079 -0.0567863 -0.0567863 2 2 3
0.161938 -0.0568773 -0.0568773 2 2 3
0.161797 -0.0569679 -0.0569679 2 2 3
0.161656 -0.0570581 -0.0570581 2 2 3
0.161515 -0.0571478 -0.0571478 2 2 3
0.161374 -0.0572372 -0.0572372 2 2 3
0.161232 -0.0573261 -0.0573261 2 2 3
0.161091 -0.0574147 -0.0574147 2 2 3
0.16095 -0.0575028 -0.0575028 2 2 3
0.160808 -0.0575905 -0.0575905 2 2 3
0.160667 -0.0576778 -0.0576778 2 2 3
0.160525 -0.0577647 -0.0577647 2 2 3
0.160384 -0.0578512 -0.0578512 2 2 3
0.160242 -0.0579373 -0.0579373 2 2 3
0.160101 -0.058023 -0.058023 2 2 3
0.159959 -0.0581082 -0.0581082 2 2 3
0.159817 -0.0581931 -0.0581931 2 2 3
0.159676 -0.0582775 -0.0582775 2 2 3
0.159534 -0.0583616 -0.0583616 2 2 3
0.159392 -0.0584452 -0.0584452 2 2 3
0.15925 -0.0585284 -0.0585284 2 2 3
0.159109 -0.0586113 -0.0586113 2 2 3
0.158967 -0.0586937 -0.0586937 2 2 3
0.158825 -0.0587757 -0.0587757 2 2 3
0.158683 -0.0588573 -0.0588573 2 2 3
0.158541 -0.0589385 -0.0589385 2 2 3
0.158399 -0.0590193 -0.0590193 2 2 3
0.158257 -0.0590997 -0.0590997 2 2 3
0.158115 -0.0591797 -0.0591797 2 2 3
0.157973 -0.0592593 -0.0592593 2 2 3
0.157831 -0.0593385 -0.0593385 2 2 3
0.15769 -0.0594173 -0.0594173 2 2 3
0.157548 -0.0594957 -0.0594957 2 2 3
0.157406 -0.0595737 -0.0595737 2 2 3
0.157264 -0.0596513 -0.0596513 2 2 3
0.157122 -0.0597285 -0.0597285 2 2 3
0.15698 -0.0598053 -0.0598053 2 2 3
0.156838 -0.0598817 -0.0598817 2 2 3
0.156696 -0.0599577 -0.0599577 2 2 3
0.156554 -0.0600333 -0.0600333 2 2 3
0.156412 -0.0601085 -0.0601085 2 2 3
0.15627 -0.0601834 -0.0601834 2 2 3
0.156128 -0.0602578 -0.0602578 2 2 3
0.155986 -0.0603318 -0.0603318 2 2 3
0.155844 -0.0604055 -0.0604055 2 2 3
0.155702 -0.0604787 -0.0604787 2 2 3
0.15556 -0.0605515 -0.0605515 2 2 3
0.155418 -0.060624 -0.060624 2 2 3
0.155276 -0.0606961 -0.0606961 2 2 3
0.155134 -0.0607678 -0.0607678 2 2 3
0.154993 -0.060839 -0.060839 2 2 3
0.154851 -0.0609099 -0.0609099 2 2 3
0.154709 -0.0609805 -0.0609805 2 2 3
0.154567 -0.0610506 -0.0610506 2 2 3
0.154426 -0.0611203 -0.0611203 2 2 3
0.154284 -0.0611897 -0.0611897 2 2 3
0.154142 -0.0612586 -0.0612586 2 2 3
0.154001 -0.0613272 -0.0613272 2 2 3
0.153859 -0.0613954 -0.0613954 2 2 3
0.153717 -0.0614632 -0.0614632 2 2 3
0.153576 -0.0615306 -0.0615306 2 2 3
0.153434 -0.0615977 -0.0615977 2 2 3
0.153293 -0.0616643 -0.0616643 2 2 3
0.153152 -0.0617306 -0.0617306 2 2 3
0.15301 -0.0617965 -0.0617965 2 2 3
0.152869 -0.061862 -0.061862 2 2 3
0.152728 -0.0619271 -0.0619271 2 2 3
0.152586 -0.0619919 -0.0619919 2 2 3
0.152445 -0.0620563 -0.0620563 2 2 3
0.152304 -0.0621203 -0.0621203 2 2 3
0.152163 -0.0621839 -0.0621839 2 2 3
0.152022 -0.0622472 -0.0622472 2 2 3
0.151881 -0.06231 -0.06231 2 2 3
0.15174 -0.0623725 -0.0623725 2 2 3
0.151599 -0.0624347 -0.0624347 2 2 3
0.151458 -0.0624964 -0.0624964 2 2 3
0.151318 -0.0625578 -0.0625578 2 2 3
0.151177 -0.0626188 -0.0626188 2 2 3
0.151036 -0.0626795 -0.0626795 2 2 3
0.150896 -0.0627397 -0.0627397 2 2 3
0.150755 -0.0627996 -0.0627996 2 2 3
0.150615 -0.0628592 -0.0628592 2 2 3
0.150475 -0.0629183 -0.0629183 2 2 3
0.150334 -0.0629771 -0.0629771 2 2 3
0.150194 -0.0630356 -0.0630356 2 2 3
0.150054 -0.0630936 -0.0630936 2 2 3
0.149914 -0.0631513 -0.0631513 2 2 3
0.149774 -0.0632087 -0.0632087 2 2 3
0.149634 -0.0632656 -0.0632656 2 2 3
0.149494 -0.0633222 -0.0633222 2 2 3
0.149354 -0.0633785 -0.0633785 2 2 3
0.149215 -0.0634344 -0.0634344 2 2 3
0.149075 -0.0634899 -0.0634899 2 2 3
0.148936 -0.0635451 -0.0635451 2 2 3
0.148796 -0.0635999 -0.0635999 2 2 3
0.148657 -0.0636544 -0.0636544 2 2 3
0.148518 -0.0637085 -0.0637085 2 2 3
0.148378 -0.0637622 -0.0637622 2 2 3
0.148239 -0.0638156 -0.0638156 2 2 3
0.1481 -0.0638686 -0.0638686 2 2 3
0.147961 -0.0639213 -0.0639213 2 2 3
0.147823 -0.0639736 -0.0639736 2 2 3
0.147684 -0.0640256 -0.0640256 2 2 3
0.147545 -0.0640772 -0.0640772 2 2 3
0.147407 -0.0641285 -0.0641285 2 2 3
0.147268 -0.0641794 -0.0641794 2 2 3
0.14713 -0.06423 -0.06423 2 2 3
0.146992 -0.0642802 -0.0642802 2 2 3
0.146853 -0.0643301 -0.0643301 2 2 3
0.146715 -0.0643797 -0.0643797 2 2 3
0.146577 -0.0644289 -0.0644289 2 2 3
0.14644 -0.0644777 -0.0644777 2 2 3
0.146302 -0.0645262 -0.0645262 2 2 3
0.146164 -0.0645744 -0.0645744 2 2 3
0.146027 -0.0646222 -0.0646222 2 2 3
0.145889 -0.0646697 -0.0646697 2 2 3
0.145752 -0.0647168 -0.0647168 2 2 3
0.145615 -0.0647636 -0.0647636 2 2 3
0.145478 -0.0648101 -0.0648101 2 2 3
0.145341 -0.0648562 -0.0648562 2 2 3
0.145204 -0.064902 -0.064902 2 2 3
0.145067 -0.0649474 -0.0649474 2 2 3
0.14493 -0.0649926 -0.0649926 2 2 3
0.144794 -0.0650374 -0.0650374 2 2 3
0.144658 -0.0650818 -0.0650818 2 2 3
0.144521 -0.0651259 -0.0651259 2 2 3
0.144385 -0.0651697 -0.0651697 2 2 3
0.144249 -0.0652132 -0.0652132 2 2 3
0.144113 -0.0652563 -0.0652563 2 2 3
0.143977 -0.0652991 -0.0652991 2 2 3
0.143842 -0.0653416 -0.0653416 2 2 3
0.143706 -0.0653837 -0.0653837 2 2 3
0.143571 -0.0654256 -0.0654256 2 2 3
0.143435 -0.0654671 -0.0654671 2 2 3
0.1433 -0.0655082 -0.0655082 2 2 3
0.143165 -0.0655491 -0.0655491 2 2 3
0.14303 -0.0655896 -0.0655896 2 2 3
0.142895 -0.0656298 -0.0656298 2 2 3
0.142761 -0.0656697 -0.0656697 2 2 3
0.142626 -0.0657093 -0.0657093 2 2 3
0.142492 -0.0657485 -0.0657485 2 2 3
0.142358 -0.0657875 -0.0657875 2 2 3
0.142223 -0.0658261 -0.0658261 2 2 3
0.142089 -0.0658644 -0.0658644 2 2 3
0.141956 -0.0659024 -0.0659024 2 2 3
0.141822 -0.06594 -0.06594 2 2 3
0.141688 -0.0659774 -0.0659774 2 2 3
0.141555 -0.0660145 -0.0660145 2 2 3
0.141422 -0.0660512 -0.0660512 2 2 3
0.141288 -0.0660876 -0.0660876 2 2 3
0.141155 -0.0661237 -0.0661237 2 2 3
0.141023 -0.0661595 -0.0661595 2 2 3
0.14089 -0.0661951 -0.0661951 2 2 3
0.140757 -0.0662302 -0.0662302 2 2 3
0.140625 -0.0662651 -0.0662651 2 2 3
0.140493 -0.0662997 -0.0662997 2 2 3
0.14036 -0.066334 -0.066334 2 2 3
0.140228 -0.066368 -0.066368 2 2 3
0.140097 -0.0664017 -0.0664017 2 2 3
0.139965 -0.0664351 -0.0664351 2 2 3
0.139833 -0.0664681 -0.0664681 2 2 3
0.139702 -0.0665009 -0.0665009 2 2 3
0.139571 -0.0665334 -0.0665334 2 2 3
0.13944 -0.0665656 -0.0665656 2 2 3
0.139309 -0.0665975 -0.0665975 2 2 3
0.139178 -0.0666291 -0.0666291 2 2 3
0.139047 -0.0666604 -0.0666604 2 2 3
0.138917 -0.0666914 -0.0666914 2 2 3
0.138786 -0.0667221 -0.0667221 2 2 3
0.138656 -0.0667525 -0.0667525 2 2 3
0.138526 -0.0667826 -0.0667826 2 2 3
0.138396 -0.0668125 -0.0668125 2 2 3
0.138267 -0.0668421 -0.0668421 2 2 3
0.138137 -0.0668713 -0.0668713 2 2 3
0.138008 -0.0669003 -0.0669003 2 2 3
0.137879 -0.066929 -0.066929 2 2 3
0.13775 -0.0669574 -0.0669574 2 2 3
0.137621 -0.0669855 -0.0669855 2 2 3
0.137492 -0.0670134 -0.0670134 2 2 3
0.137363 -0.067041 -0.067041 2 2 3
0.137235 -0.0670682 -0.0670682 2 2 3
0.137107 -0.0670952 -0.0670952 2 2 3
0.136979 -0.067122 -0.067122 2 2 3
0.136851 -0.0671484 -0.0671484 2 2 3
0.136723 -0.0671746 -0.0671746 2 2 3
0.136596 -0.0672005 -0.0672005 2 2 3
0.136468 -0.0672261 -0.0672261 2 2 3
0.136341 -0.0672514 -0.0672514 2 2 3
0.136214 -0.0672765 -0.0672765 2 2 3
0.136087 -0.0673013 -0.0673013 2 2 3
0.13596 -0.0673259 -0.0673259 2 2 3
0.135834 -0.0673501 -0.0673501 2 2 3
0.135708 -0.0673741 -0.0673741 2 2 3
0.135581 -0.0673978 -0.0673978 2 2 3
0.135455 -0.0674213 -0.0674213 2 2 3
0.13533 -0.0674445 -0.0674445 2 2 3
0.135204 -0.0674674 -0.0674674 2 2 3
0.135078 -0.06749 -0.06749 2 2 3
0.134953 -0.0675124 -0.0675124 2 2 3
0.134828 -0.0675346 -0.0675346 2 2 3
0.134703 -0.0675564 -0.0675564 2 2 3
0.134578 -0.067578 -0.067578 2 2 3
0.134454 -0.0675994 -0.0675994 2 2 3
0.134329 -0.0676205 -0.0676205 2 2 3
0.134205 -0.0676413 -0.0676413 2 2 3
0.134081 -0.0676619 -0.0676619 2 2 3
0.133957 -0.0676822 -0.0676822 2 2 3
0.133833 -0.0677023 -0.0677023 2 2 3
0.13371 -0.0677221 -0.0677221 2 2 3
0.133586 -0.0677417 -0.0677417 2 2 3
0.133463 -0.067761 -0.067761 2 2 3
0.13334 -0.06778 -0.06778 2 2 3
0.133217 -0.0677988 -0.0677988 2 2 3
0.133095 -0.0678174 -0.0678174 2 2 3
0.132972 -0.0678357 -0.0678357 2 2 3
0.13285 -0.0678537 -0.0678537 2 2 3
0.132728 -0.0678716 -0.0678716 2 2 3
0.132606 -0.0678891 -0.0678891 2 2 3
0.132485 -0.0679064 -0.0679064 2 2 3
0.132363 -0.0679235 -0.0679235 2 2 3
0.132242 -0.0679404 -0.0679404 2 2 3
0.132121 -0.067957 -0.067957 2 2 3
0.132 -0.0679733 -0.0679733 2 2 3
0.131879 -0.0679894 -0.0679894 2 2 3
0.131758 -0.0680053 -0.0680053 2 2 3
0.131638 -0.0680209 -0.0680209 2 2 3
0.131518 -0.0680363 -0.0680363 2 2 3
0.131398 -0.0680515 -0.0680515 2 2 3
0.131278 -0.0680664 -0.0680664 2 2 3
0.131158 -0.0680811 -0.0680811 2 2 3
0.131039 -0.0680956 -0.0680956 2 2 3
0.13092 -0.0681098 -0.0681098 2 2 3
0.130801 -0.0681238 -0.0681238 2 2 3
0.130682 -0.0681376 -0.0681376 2 2 3
0.130563 -0.0681511 -0.0681511 2 2 3
0.130445 -0.0681644 -0.0681644 2 2 3
0.130327 -0.0681775 -0.0681775 2 2 3
0.130208 -0.0681904 -0.0681904 2 2 3
0.130091 -0.068203 -0.068203 2 2 3
0.129973 -0.0682154 -0.0682154 2 2 3
0.129855 -0.0682276 -0.0682276 2 2 3
0.129738 -0.0682395 -0.0682395 2 2 3
0.129621 -0.0682513 -0.0682513 2 2 3
0.129504 -0.0682628 -0.0682628 2 2 3
0.129387 -0.0682741 -0.0682741 2 2 3
0.129271 -0.0682852 -0.0682852 2 2 3
0.129155 -0.068296 -0.068296 2 2 3
0.129039 -0.0683066 -0.0683066 2 2 3
0.128923 -0.0683171 -0.0683171 2 2 3
0.128807 -0.0683273 -0.0683273 2 2 3
0.128691 -0.0683373 -0.0683373 2 2 3
0.128576 -0.068347 -0.068347 2 2 3
0.128461 -0.0683566 -0.0683566 2 2 3
0.128346 -0.068366 -0.068366 2 2 3
0.128231 -0.0683751 -0.0683751 2 2 3
0.128117 -0.068384 -0.068384 2 2 3
0.128002 -0.0683927 -0.0683927 2 2 3
0.127888 -0.0684013 -0.0684013 2 2 3
0.127774 -0.0684096 -0.0684096 2 2 3
0.127661 -0.0684177 -0.0684177 2 2 3
0.127547 -0.0684256 -0.0684256 2 2 3
0.127434 -0.0684332 -0.0684332 2 2 3
0.127321 -0.0684407 -0.0684407 2 2 3
0.127208 -0.068448 -0.068448 2 2 3
0.127095 -0.0684551 -0.0684551 2 2 3
0.126982 -0.068462 -0.068462 2 2 3
0.12687 -0.0684686 -0.0684686 2 2 3
0.126758 -0.0684751 -0.0684751 2 2 3
0.126646 -0.0684814 -0.0684814 2 2 3
0.126534 -0.0684875 -0.0684875 2 2 3
0.126423 -0.0684934 -0.0684934 2 2 3
0.126312 -0.068499 -0.068499 2 2 3
0.1262 -0.0685045 -0.0685045 2 2 3
0.12609 -0.0685098 -0.0685098 2 2 3
0.125979 -0.0685149 -0.0685149 2 2 3
0.125868 -0.0685199 -0.0685199 2 2 3
0.125758 -0.0685246 -0.0685246 2 2 3
0.125648 -0.0685291 -0.0685291 2 2 3
0.125538 -0.0685335 -0.0685335 2 2 3
0.125428 -0.0685376 -0.0685376 2 2 3
0.125319 -0.0685416 -0.0685416 2 2 3
0.12521 -0.0685453 -0.0685453 2 2 3
0.125101 -0.0685489 -0.0685489 2 2 3
0.124992 -0.0685523 -0.0685523 2 2 3
0.124883 -0.0685556 -0.0685556 2 2 3
0.124775 -0.0685586 -0.0685586 2 2 3
0.124666 -0.0685614 -0.0685614 2 2 3
0.124558 -0.0685641 -0.0685641 2 2 3
0.124451 -0.0685666 -0.0685666 2 2 3
0.124343 -0.0685689 -0.0685689 2 2 3
0.124236 -0.068571 -0.068571 2 2 3
0.124128 -0.068573 -0.068573 2 2 3
0.124021 -0.0685748 -0.0685748 2 2 3
0.123915 -0.0685764 -0.0685764 2 2 3
0.123808 -0.0685778 -0.0685778 2 2 3
0.123702 -0.068579 -0.068579 2 2 3
0.123595 -0.0685801 -0.0685801 2 2 3
0.123489 -0.068581 -0.068581 2 2 3
0.123384 -0.0685817 -0.0685817 2 2 3
0.123278 -0.0685823 -0.0685823 2 2 3
0.123173 -0.0685827 -0.0685827 2 2 3
0.123068 -0.0685829 -0.0685829 2 2 3
0.122963 -0.0685829 -0.0685829 2 2 3
0.122858 -0.0685828 -0.0685828 2 2 3
0.122753 -0.0685825 -0.0685825 2 2 3
0.122649 -0.068582 -0.068582 2 2 3
0.122545 -0.0685814 -0.0685814 2 2 3
0.122441 -0.0685806 -0.0685806 2 2 3
0.122337 -0.0685797 -0.0685797 2 2 3
0.122234 -0.0685785 -0.0685785 2 2 3
0.122131 -0.0685772 -0.0685772 2 2 3
0.122028 -0.0685758 -0.0685758 2 2 3
0.121925 -0.0685742 -0.0685742 2 2 3
0.121822 -0.0685724 -0.0685724 2 2 3
0.12172 -0.0685705 -0.0685705 2 2 3
0.121618 -0.0685684 -0.0685684 2 2 3
0.121515 -0.0685662 -0.0685662 2 2 3
0.121414 -0.0685638 -0.0685638 2 2 3
0.121312 -0.0685612 -0.0685612 2 2 3
0.121211 -0.0685585 -0.0685585 2 2 3
0.121109 -0.0685556 -0.0685556 2 2 3
0.121008 -0.0685526 -0.0685526 2 2 3
0.120908 -0.0685494 -0.0685494 2 2 3
0.120807 -0.0685461 -0.0685461 2 2 3
0.120707 -0.0685426 -0.0685426 2 2 3
0.120607 -0.068539 -0.068539 2 2 3
0.120507 -0.0685352 -0.0685352 2 2 3
0.120407 -0.0685313 -0.0685313 2 2 3
0.120307 -0.0685272 -0.0685272 2 2 3
0.120208 -0.068523 -0.068523 2 2 3
0.120109 -0.0685186 -0.0685186 2 2 3
0.12001 -0.0685141 -0.0685141 2 2 3
0.119911 -0.0685094 -0.0685094 2 2 3
0.119813 -0.0685046 -0.0685046 2 2 3
0.119715 -0.0684996 -0.0684996 2 2 3
0.119617 -0.0684945 -0.0684945 2 2 3
0.119519 -0.0684893 -0.0684893 2 2 3
0.119421 -0.0684839 -0.0684839 2 2 3
0.119324 -0.0684784 -0.0684784 2 2 3
0.119226 -0.0684727 -0.0684727 2 2 3
0.119129 -0.0684669 -0.0684669 2 2 3
0.119033 -0.068461 -0.068461 2 2 3
0.118936 -0.0684549 -0.0684549 2 2 3
0.11884 -0.0684487 -0.0684487 2 2 3
0.118743 -0.0684423 -0.0684423 2 2 3
0.118647 -0.0684358 -0.0684358 2 2 3
0.118552 -0.0684292 -0.0684292 2 2 3
0.118456 -0.0684225 -0.0684225 2 2 3
0.118361 -0.0684156 -0.0684156 2 2 3
0.118266 -0.0684085 -0.0684085 2 2 3
0.118171 -0.0684014 -0.0684014 2 2 3
0.118076 -0.0683941 -0.0683941 2 2 3
0.117981 -0.0683867 -0.0683867 2 2 3
0.117887 -0.0683791 -0.0683791 2 2 3
0.117793 -0.0683715 -0.0683715 2 2 3
0.117699 -0.0683636 -0.0683636 2 2 3
0.117605 -0.0683557 -0.0683557 2 2 3
0.117512 -0.0683477 -0.0683477 2 2 3
0.117419 -0.0683395 -0.0683395 2 2 3
0.117326 -0.0683312 -0.0683312 2 2 3
0.117233 -0.0683227 -0.0683227 2 2 3
0.11714 -0.0683142 -0.0683142 2 2 3
0.117048 -0.0683055 -0.0683055 2 2 3
0.116955 -0.0682967 -0.0682967 2 2 3
0.116863 -0.0682877 -0.0682877 2 2 3
0.116771 -0.0682787 -0.0682787 2 2 3
0.11668 -0.0682695 -0.0682695 2 2 3
0.116588 -0.0682602 -0.0682602 2 2 3
0.116497 -0.0682508 -0.0682508 2 2 3
0.116406 -0.0682413 -0.0682413 2 2 3
0.116315 -0.0682316 -0.0682316 2 2 3
0.116225 -0.0682219 -0.0682219 2 2 3
0.116134 -0.068212 -0.068212 2 2 3
0.116044 -0.068202 -0.068202 2 2 3
0.115954 -0.0681919 -0.0681919 2 2 3
0.115865 -0.0681817 -0.0681817 2 2 3
0.115775 -0.0681713 -0.0681713 2 2 3
0.115686 -0.0681609 -0.0681609 2 2 3
0.115596 -0.0681503 -0.0681503 2 2 3
0.115508 -0.0681396 -0.0681396 2 2 3
0.115419 -0.0681288 -0.0681288 2 2 3
0.11533 -0.0681179 -0.0681179 2 2 3
0.115242 -0.0681069 -0.0681069 2 2 3
0.115154 -0.0680958 -0.0680958 2 2 3
0.115066 -0.0680846 -0.0680846 2 2 3
0.114978 -0.0680732 -0.0680732 2 2 3
0.114891 -0.0680618 -0.0680618 2 2 3
0.114803 -0.0680503 -0.0680503 2 2 3
0.114716 -0.0680386 -0.0680386 2 2 3
0.114629 -0.0680268 -0.0680268 2 2 3
0.114543 -0.068015 -0.068015 2 2 3
0.114456 -0.068003 -0.068003 2 2 3
0.11437 -0.0679909 -0.0679909 2 2 3
0.114284 -0.0679788 -0.0679788 2 2 3
0.114198 -0.0679665 -0.0679665 2 2 3
0.114112 -0.0679541 -0.0679541 2 2 3
0.114027 -0.0679416 -0.0679416 2 2 3
0.113942 -0.0679291 -0.0679291 2 2 3
0.113856 -0.0679164 -0.0679164 2 2 3
0.113772 -0.0679036 -0.0679036 2 2 3
0.113687 -0.0678907 -0.0678907 2 2 3
0.113602 -0.0678778 -0.0678778 2 2 3
0.113518 -0.0678647 -0.0678647 2 2 3
0.113434 -0.0678515 -0.0678515 2 2 3
0.11335 -0.0678383 -0.0678383 2 2 3
0.113267 -0.0678249 -0.0678249 2 2 3
0.113183 -0.0678115 -0.0678115 2 2 3
0.1131 -0.0677979 -0.0677979 2 2 3
0.113017 -0.0677843 -0.0677843 2 2 3
0.112934 -0.0677706 -0.0677706 2 2 3
0.112851 -0.0677567 -0.0677567 2 2 3
0.112769 -0.0677428 -0.0677428 2 2 3
0.112687 -0.0677288 -0.0677288 2 2 3
0.112605 -0.0677147 -0.0677147 2 2 3
0.112523 -0.0677005 -0.0677005 2 2 3
0.112441 -0.0676863 -0.0676863 2 2 3
0.11236 -0.0676719 -0.0676719 2 2 3
0.112279 -0.0676575 -0.0676575 2 2 3
0.112198 -0.0676429 -0.0676429 2 2 3
0.112117 -0.0676283 -0.0676283 2 2 3
0.112036 -0.0676136 -0.0676136 2 2 3
0.111956 -0.0675988 -0.0675988 2 2 3
0.111875 -0.0675839 -0.0675839 2 2 3
0.111795 -0.0675689 -0.0675689 2 2 3
0.111715 -0.0675539 -0.0675539 2 2 3
0.111636 -0.0675388 -0.0675388 2 2 3
0.111556 -0.0675235 -0.0675235 2 2 3
0.111477 -0.0675082 -0.0675082 2 2 3
0.111398 -0.0674929 -0.0674929 2 2 3
0.111319 -0.0674774 -0.0674774 2 2 3
0.111241 -0.0674619 -0.0674619 2 2 3
0.111162 -0.0674462 -0.0674462 2 2 3
0.111084 -0.0674305 -0.0674305 2 2 3
0.111006 -0.0674148 -0.0674148 2 2 3
0.110928 -0.0673989 -0.0673989 2 2 3
0.11085 -0.067383 -0.067383 2 2 3
0.110773 -0.067367 -0.067367 2 2 3
0.110695 -0.0673509 -0.0673509 2 2 3
0.110618 -0.0673347 -0.0673347 2 2 3
0.110541 -0.0673185 -0.0673185 2 2 3
0.110465 -0.0673021 -0.0673021 2 2 3
0.110388 -0.0672858 -0.0672858 2 2 3
0.110312 -0.0672693 -0.0672693 2 2 3
0.110236 -0.0672528 -0.0672528 2 2 3
0.11016 -0.0672361 -0.0672361 2 2 3
0.110084 -0.0672195 -0.0672195 2 2 3
0.110009 -0.0672027 -0.0672027 2 2 3
0.109933 -0.0671859 -0.0671859 2 2 3
0.109858 -0.067169 -0.067169 2 2 3
0.109783 -0.067152 -0.067152 2 2 3
0.109709 -0.067135 -0.067135 2 2 3
0.109634 -0.0671179 -0.0671179 2 2 3
0.10956 -0.0671007 -0.0671007 2 2 3
0.109485 -0.0670835 -0.0670835 2 2 3
0.109412 -0.0670662 -0.0670662 2 2 3
0.109338 -0.0670488 -0.0670488 2 2 3
0.109264 -0.0670313 -0.0670313 2 2 3
0.109191 -0.0670138 -0.0670138 2 2 3
0.109118 -0.0669962 -0.0669962 2 2 3
0.109045 -0.0669786 -0.0669786 2 2 3
0.108972 -0.0669609 -0.0669609 2 2 3
0.108899 -0.0669431 -0.0669431 2 2 3
0.108827 -0.0669253 -0.0669253 2 2 3
0.108754 -0.0669074 -0.0669074 2 2 3
0.108682 -0.0668894 -0.0668894 2 2 3
0.10861 -0.0668714 -0.0668714 2 2 3
0.108539 -0.0668533 -0.0668533 2 2 3
0.108467 -0.0668352 -0.0668352 2 2 3
0.108396 -0.066817 -0.066817 2 2 3
0.108325 -0.0667987 -0.0667987 2 2 3
0.108254 -0.0667804 -0.0667804 2 2 3
0.108183 -0.066762 -0.066762 2 2 3
0.108113 -0.0667436 -0.0667436 2 2 3
0.108042 -0.0667251 -0.0667251 2 2 3
0.107972 -0.0667065 -0.0667065 2 2 3
0.107902 -0.0666879 -0.0666879 2 2 3
0.107832 -0.0666692 -0.0666692 2 2 3
0.107763 -0.0666505 -0.0666505 2 2 3
0.107693 -0.0666317 -0.0666317 2 2 3
0.107624 -0.0666129 -0.0666129 2 2 3
0.107555 -0.066594 -0.066594 2 2 3
0.107486 -0.066575 -0.066575 2 2 3
0.107418 -0.066556 -0.066556 2 2 3
0.107349 -0.066537 -0.066537 2 2 3
0.107281 -0.0665178 -0.0665178 2 2 3
0.107213 -0.0664987 -0.0664987 2 2 3
0.107145 -0.0664795 -0.0664795 2 2 3
0.107077 -0.0664602 -0.0664602 2 2 3
0.107009 -0.0664409 -0.0664409 2 2 3
0.106942 -0.0664215 -0.0664215 2 2 3
0.106875 -0.0664021 -0.0664021 2 2 3
0.106808 -0.0663826 -0.0663826 2 2 3
0.106741 -0.0663631 -0.0663631 2 2 3
0.106675 -0.0663435 -0.0663435 2 2 3
0.106608 -0.0663239 -0.0663239 2 2 3
0.106542 -0.0663042 -0.0663042 2 2 3
0.106476 -0.0662845 -0.0662845 2 2 3
0.10641 -0.0662648 -0.0662648 2 2 3
0.106344 -0.0662449 -0.0662449 2 2 3
0.106279 -0.0662251 -0.0662251 2 2 3
0.106213 -0.0662052 -0.0662052 2 2 3
0.106148 -0.0661852 -0.0661852 2 2 3
0.106083 -0.0661652 -0.0661652 2 2 3
0.106018 -0.0661452 -0.0661452 2 2 3
0.105954 -0.0661251 -0.0661251 2 2 3
0.105889 -0.066105 -0.066105 2 2 3
0.105825 -0.0660848 -0.0660848 2 2 3
0.105761 -0.0660646 -0.0660646 2 2 3
0.105697 -0.0660444 -0.0660444 2 2 3
0.105633 -0.0660241 -0.0660241 2 2 3
0.10557 -0.0660037 -0.0660037 2 2 3
0.105506 -0.0659833 -0.0659833 2 2 3
0.105443 -0.0659629 -0.0659629 2 2 3
0.10538 -0.0659424 -0.0659424 2 2 3
0.105318 -0.0659219 -0.0659219 2 2 3
0.105255 -0.0659014 -0.0659014 2 2 3
0.105192 -0.0658808 -0.0658808 2 2 3
0.10513 -0.0658602 -0.0658602 2 2 3
0.105068 -0.0658395 -0.0658395 2 2 3
0.105006 -0.0658188 -0.0658188 2 2 3
0.104944 -0.0657981 -0.0657981 2 2 3
0.104883 -0.0657773 -0.0657773 2 2 3
0.104821 -0.0657565 -0.0657565 2 2 3
0.10476 -0.0657356 -0.0657356 2 2 3
0.104699 -0.0657148 -0.0657148 2 2 3
0.104638 -0.0656938 -0.0656938 2 2 3
0.104578 -0.0656729 -0.0656729 2 2 3
0.104517 -0.0656519 -0.0656519 2 2 3
0.104457 -0.0656308 -0.0656308 2 2 3
0.104397 -0.0656098 -0.0656098 2 2 3
0.104337 -0.0655887 -0.0655887 2 2 3
0.104277 -0.0655675 -0.0655675 2 2 3
0.104217 -0.0655464 -0.0655464 2 2 3
0.104158 -0.0655252 -0.0655252 2 2 3
0.104099 -0.065504 -0.065504 2 2 3
0.10404 -0.0654827 -0.0654827 2 2 3
0.103981 -0.0654614 -0.0654614 2 2 3
0.103922 -0.0654401 -0.0654401 2 2 3
0.103863 -0.0654187 -0.0654187 2 2 3
0.103805 -0.0653973 -0.0653973 2 2 3
0.103747 -0.0653759 -0.0653759 2 2 3
0.103689 -0.0653544 -0.0653544 2 2 3
0.103631 -0.065333 -0.065333 2 2 3
0.103573 -0.0653115 -0.0653115 2 2 3
0.103516 -0.0652899 -0.0652899 2 2 3
0.103458 -0.0652683 -0.0652683 2 2 3
0.103401 -0.0652467 -0.0652467 2 2 3
0.103344 -0.0652251 -0.0652251 2 2 3
0.103287 -0.0652035 -0.0652035 2 2 3
0.10323 -0.0651818 -0.0651818 2 2 3
0.103174 -0.0651601 -0.0651601 2 2 3
0.103118 -0.0651383 -0.0651383 2 2 3
0.103061 -0.0651166 -0.0651166 2 2 3
0.103005 -0.0650948 -0.0650948 2 2 3
0.10295 -0.065073 -0.065073 2 2 3
0.102894 -0.0650512 -0.0650512 2 2 3
0.102839 -0.0650293 -0.0650293 2 2 3
0.102783 -0.0650074 -0.0650074 2 2 3
0.102728 -0.0649855 -0.0649855 2 2 3
0.102673 -0.0649636 -0.0649636 2 2 3
0.102618 -0.0649416 -0.0649416 2 2 3
0.102564 -0.0649196 -0.0649196 2 2 3
0.102509 -0.0648976 -0.0648976 2 2 3
0.102455 -0.0648756 -0.0648756 2 2 3
0.102401 -0.0648535 -0.0648535 2 2 3
0.102347 -0.0648315 -0.0648315 2 2 3
0.102293 -0.0648094 -0.0648094 2 2 3
0.102239 -0.0647872 -0.0647872 2 2 3
0.102186 -0.0647651 -0.0647651 2 2 3
0.102133 -0.064743 -0.064743 2 2 3
0.10208 -0.0647208 -0.0647208 2 2 3
0.102027 -0.0646986 -0.0646986 2 2 3
0.101974 -0.0646764 -0.0646764 2 2 3
0.101921 -0.0646541 -0.0646541 2 2 3
0.101869 -0.0646319 -0.0646319 2 2 3
0.101816 -0.0646096 -0.0646096 2 2 3
0.101764 -0.0645873 -0.0645873 2 2 3
0.101712 -0.064565 -0.064565 2 2 3
0.101661 -0.0645426 -0.0645426 2 2 3
0.101609 -0.0645203 -0.0645203 2 2 3
0.101557 -0.0644979 -0.0644979 2 2 3
0.101506 -0.0644755 -0.0644755 2 2 3
0.101455 -0.0644531 -0.0644531 2 2 3
0.101404 -0.0644307 -0.0644307 2 2 3
0.101353 -0.0644083 -0.0644083 2 2 3
0.101303 -0.0643858 -0.0643858 2 2 3
0.101252 -0.0643634 -0.0643634 2 2 3
0.101202 -0.0643409 -0.0643409 2 2 3
0.101152 -0.0643184 -0.0643184 2 2 3
0.101102 -0.0642959 -0.0642959 2 2 3
0.101052 -0.0642734 -0.0642734 2 2 3
0.101002 -0.0642508 -0.0642508 2 2 3
0.100953 -0.0642283 -0.0642283 2 2 3
0.100903 -0.0642057 -0.0642057 2 2 3
0.100854 -0.0641831 -0.0641831 2 2 3
0.100805 -0.0641605 -0.0641605 2 2 3
0.100756 -0.0641379 -0.0641379 2 2 3
0.100708 -0.0641153 -0.0641153 2 2 3
0.100659 -0.0640927 -0.0640927 2 2 3
0.100611 -0.06407 -0.06407 2 2 3
0.100562 -0.0640474 -0.0640474 2 2 3
0.100514 -0.0640247 -0.0640247 2 2 3
0.100466 -0.064002 -0.064002 2 2 3
0.100419 -0.0639793 -0.0639793 2 2 3
0.100371 -0.0639566 -0.0639566 2 2 3
0.100324 -0.0639339 -0.0639339 2 2 3
0.100276 -0.0639112 -0.0639112 2 2 3
0.100229 -0.0638885 -0.0638885 2 2 3
0.100182 -0.0638657 -0.0638657 2 2 3
0.100136 -0.063843 -0.063843 2 2 3
0.100089 -0.0638202 -0.0638202 2 2 3
0.100043 -0.0637974 -0.0637974 2 2 3
0.0999963 -0.0637747 -0.0637747 2 2 3
0.0999501 -0.0637519 -0.0637519 2 2 3
0.0999041 -0.0637291 -0.0637291 2 2 3
0.0998583 -0.0637063 -0.0637063 2 2 3
0.0998126 -0.0636835 -0.0636835 2 2 3
0.0997671 -0.0636607 -0.0636607 2 2 3
0.0997217 -0.0636378 -0.0636378 2 2 3
0.0996765 -0.063615 -0.063615 2 2 3
0.0996315 -0.0635922 -0.0635922 2 2 3
0.0995866 -0.0635693 -0.0635693 2 2 3
0.0995419 -0.0635465 -0.0635465 2 2 3
0.0994973 -0.0635236 -0.0635236 2 2 3
0.0994528 -0.0635008 -0.0635008 2 2 3
0.0994086 -0.0634779 -0.0634779 2 2 3
0.0993645 -0.063455 -0.063455 2 2 3
0.0993205 -0.0634322 -0.0634322 2 2 3
0.0992767 -0.0634093 -0.0634093 2 2 3
0.0992331 -0.0633864 -0.0633864 2 2 3
0.0991896 -0.0633635 -0.0633635 2 2 3
0.0991462 -0.0633406 -0.0633406 2 2 3
0.099103 -0.0633177 -0.0633177 2 2 3
0.09906 -0.0632948 -0.0632948 2 2 3
0.0990171 -0.0632719 -0.0632719 2 2 3
0.0989744 -0.063249 -0.063249 2 2 3
0.0989318 -0.0632261 -0.0632261 2 2 3
0.0988894 -0.0632032 -0.0632032 2 2 3
0.0988472 -0.0631803 -0.0631803 2 2 3
0.098805 -0.0631574 -0.0631574 2 2 3
0.0987631 -0.0631344 -0.0631344 2 2 3
0.0987213 -0.0631115 -0.0631115 2 2 3
0.0986796 -0.0630886 -0.0630886 2 2 3
0.0986381 -0.0630657 -0.0630657 2 2 3
0.0985968 -0.0630428 -0.0630428 2 2 3
0.0985556 -0.0630198 -0.0630198 2 2 3
0.0985145 -0.0629969 -0.0629969 2 2 3
0.0984737 -0.062974 -0.062974 2 2 3
0.0984329 -0.0629511 -0.0629511 2 2 3
0.0983923 -0.0629281 -0.0629281 2 2 3
0.0983519 -0.0629052 -0.0629052 2 2 3
0.0983116 -0.0628823 -0.0628823 2 2 3
0.0982715 -0.0628594 -0.0628594 2 2 3
0.0982315 -0.0628365 -0.0628365 2 2 3
0.0981916 -0.0628135 -0.0628135 2 2 3
0.098152 -0.0627906 -0.0627906 2 2 3
0.0981124 -0.0627677 -0.0627677 2 2 3
0.098073 -0.0627448 -0.0627448 2 2 3
0.0980338 -0.0627219 -0.0627219 2 2 3
0.0979947 -0.062699 -0.062699 2 2 3
0.0979558 -0.0626761 -0.0626761 2 2 3
0.097917 -0.0626531 -0.0626531 2 2 3
0.0978784 -0.0626302 -0.0626302 2 2 3
0.0978399 -0.0626073 -0.0626073 2 2 3
0.0978015 -0.0625845 -0.0625845 2 2 3
0.0977633 -0.0625616 -0.0625616 2 2 3
0.0977253 -0.0625387 -0.0625387 2 2 3
0.0976874 -0.0625158 -0.0625158 2 2 3
0.0976497 -0.0624929 -0.0624929 2 2 3
0.0976121 -0.06247 -0.06247 2 2 3
0.0975746 -0.0624472 -0.0624472 2 2 3
0.0975373 -0.0624243 -0.0624243 2 2 3
0.0975002 -0.0624014 -0.0624014 2 2 3
0.0974631 -0.0623786 -0.0623786 2 2 3
0.0974263 -0.0623557 -0.0623557 2 2 3
0.0973896 -0.0623329 -0.0623329 2 2 3
0.097353 -0.06231 -0.06231 2 2 3
0.0973166 -0.0622872 -0.0622872 2 2 3
0.0972803 -0.0622644 -0.0622644 2 2 3
0.0972442 -0.0622415 -0.0622415 2 2 3
0.0972082 -0.0622187 -0.0622187 2 2 3
0.0971724 -0.0621959 -0.0621959 2 2 3
0.0971367 -0.0621731 -0.0621731 2 2 3
0.0971012 -0.0621503 -0.0621503 2 2 3
0.0970658 -0.0621275 -0.0621275 2 2 3
0.0970305 -0.0621047 -0.0621047 2 2 3
0.0969954 -0.062082 -0.062082 2 2 3
0.0969605 -0.0620592 -0.0620592 2 2 3
0.0969257 -0.0620364 -0.0620364 2 2 3
0.096891 -0.0620137 -0.0620137 2 2 3
0.0968565 -0.0619909 -0.0619909 2 2 3
0.0968221 -0.0619682 -0.0619682 2 2 3
0.0967879 -0.0619455 -0.0619455 2 2 3
0.0967538 -0.0619227 -0.0619227 2 2 3
0.0967199 -0.0619 -0.0619 2 2 3
0.0966861 -0.0618773 -0.0618773 2 2 3
0.0966524 -0.0618546 -0.0618546 2 2 3
0.0966189 -0.061832 -0.061832 2 2 3
0.0965855 -0.0618093 -0.0618093 2 2 3
0.0965523 -0.0617866 -0.0617866 2 2 3
0.0965193 -0.061764 -0.061764 2 2 3
0.0964863 -0.0617413 -0.0617413 2 2 3
0.0964535 -0.0617187 -0.0617187 2 2 3
0.0964209 -0.0616961 -0.0616961 2 2 3
0.0963884 -0.0616735 -0.0616735 2 2 3
0.096356 -0.0616509 -0.0616509 2 2 3
0.0963238 -0.0616283 -0.0616283 2 2 3
0.0962918 -0.0616057 -0.0616057 2 2 3
0.0962598 -0.0615831 -0.0615831 2 2 3
0.0962281 -0.0615606 -0.0615606 2 2 3
0.0961964 -0.061538 -0.061538 2 2 3
0.0961649 -0.0615155 -0.0615155 2 2 3
0.0961336 -0.061493 -0.061493 2 2 3
0.0961023 -0.0614705 -0.0614705 2 2 3
0.0960713 -0.061448 -0.061448 2 2 3
0.0960404 -0.0614255 -0.0614255 2 2 3
0.0960096 -0.061403 -0.061403 2 2 3
0.0959789 -0.0613806 -0.0613806 2 2 3
0.0959484 -0.0613581 -0.0613581 2 2 3
0.0959181 -0.0613357 -0.0613357 2 2 3
0.0958878 -0.0613133 -0.0613133 2 2 3
0.0958578 -0.0612908 -0.0612908 2 2 3
0.0958278 -0.0612685 -0.0612685 2 2 3
0.0957981 -0.0612461 -0.0612461 2 2 3
0.0957684 -0.0612237 -0.0612237 2 2 3
0.0957389 -0.0612014 -0.0612014 2 2 3
0.0957095 -0.061179 -0.061179 2 2 3
0.0956803 -0.0611567 -0.0611567 2 2 3
0.0956512 -0.0611344 -0.0611344 2 2 3
0.0956223 -0.0611121 -0.0611121 2 2 3
0.0955935 -0.0610898 -0.0610898 2 2 3
0.0955648 -0.0610675 -0.0610675 2 2 3
0.0955363 -0.0610453 -0.0610453 2 2 3
0.0955079 -0.061023 -0.061023 2 2 3
0.0954797 -0.0610008 -0.0610008 2 2 3
0.0954516 -0.0609786 -0.0609786 2 2 3
0.0954236 -0.0609564 -0.0609564 2 2 3
0.0953958 -0.0609343 -0.0609343 2 2 3
0.0953681 -0.0609121 -0.0609121 2 2 3
0.0953406 -0.0608899 -0.0608899 2 2 3
0.0953132 -0.0608678 -0.0608678 2 2 3
0.0952859 -0.0608457 -0.0608457 2 2 3
0.0952588 -0.0608236 -0.0608236 2 2 3
0.0952318 -0.0608015 -0.0608015 2 2 3
0.095205 -0.0607795 -0.0607795 2 2 3
0.0951783 -0.0607574 -0.0607574 2 2 3
0.0951518 -0.0607354 -0.0607354 2 2 3
0.0951253 -0.0607134 -0.0607134 2 2 3
0.0950991 -0.0606914 -0.0606914 2 2 3
0.0950729 -0.0606694 -0.0606694 2 2 3
0.0950469 -0.0606475 -0.0606475 2 2 3
0.0950211 -0.0606255 -0.0606255 2 2 3
0.0949954 -0.0606036 -0.0606036 2 2 3
0.0949698 -0.0605817 -0.0605817 2 2 3
0.0949443 -0.0605598 -0.0605598 2 2 3
0.0949191 -0.0605379 -0.0605379 2 2 3
0.0948939 -0.0605161 -0.0605161 2 2 3
0.0948689 -0.0604942 -0.0604942 2 2 3
0.094844 -0.0604724 -0.0604724 2 2 3
0.0948193 -0.0604506 -0.0604506 2 2 3
0.0947947 -0.0604288 -0.0604288 2 2 3
0.0947702 -0.0604071 -0.0604071 2 2 3
0.0947459 -0.0603853 -0.0603853 2 2 3
0.0947217 -0.0603636 -0.0603636 2 2 3
0.0946976 -0.0603419 -0.0603419 2 2 3
0.0946737 -0.0603202 -0.0603202 2 2 3
0.09465 -0.0602986 -0.0602986 2 2 3
0.0946263 -0.0602769 -0.0602769 2 2 3
0.0946029 -0.0602553 -0.0602553 2 2 3
0.0945795 -0.0602337 -0.0602337 2 2 3
0.0945563 -0.0602121 -0.0602121 2 2 3
0.0945332 -0.0601905 -0.0601905 2 2 3
0.0945103 -0.060169 -0.060169 2 2 3
0.0944875 -0.0601475 -0.0601475 2 2 3
0.0944649 -0.060126 -0.060126 2 2 3
0.0944423 -0.0601045 -0.0601045 2 2 3
0.09442 -0.060083 -0.060083 2 2 3
0.0943977 -0.0600616 -0.0600616 2 2 3
0.0943756 -0.0600401 -0.0600401 2 2 3
0.0943537 -0.0600187 -0.0600187 2 2 3
0.0943318 -0.0599974 -0.0599974 2 2 3
0.0943102 -0.059976 -0.059976 2 2 3
0.0942886 -0.0599547 -0.0599547 2 2 3
0.0942672 -0.0599333 -0.0599333 2 2 3
0.094246 -0.0599121 -0.0599121 2 2 3
0.0942248 -0.0598908 -0.0598908 2 2 3
0.0942038 -0.0598695 -0.0598695 2 2 3
0.094183 -0.0598483 -0.0598483 2 2 3
0.0941623 -0.0598271 -0.0598271 2 2 3
0.0941417 -0.0598059 -0.0598059 2 2 3
0.0941213 -0.0597847 -0.0597847 2 2 3
0.094101 -0.0597636 -0.0597636 2 2 3
0.0940808 -0.0597425 -0.0597425 2 2 3
0.0940608 -0.0597214 -0.0597214 2 2 3
0.094041 -0.0597003 -0.0597003 2 2 3
0.0940212 -0.0596793 -0.0596793 2 2 3
0.0940016 -0.0596582 -0.0596582 2 2 3
0.0939822 -0.0596372 -0.0596372 2 2 3
0.0939629 -0.0596162 -0.0596162 2 2 3
0.0939437 -0.0595953 -0.0595953 2 2 3
0.0939246 -0.0595743 -0.0595743 2 2 3
0.0939057 -0.0595534 -0.0595534 2 2 3
0.093887 -0.0595325 -0.0595325 2 2 3
0.0938683 -0.0595117 -0.0595117 2 2 3
0.0938499 -0.0594908 -0.0594908 2 2 3
0.0938315 -0.05947 -0.05947 2 2 3
0.0938133 -0.0594492 -0.0594492 2 2 3
0.0937953 -0.0594284 -0.0594284 2 2 3
0.0937773 -0.0594077 -0.0594077 2 2 3
0.0937595 -0.059387 -0.059387 2 2 3
0.0937419 -0.0593663 -0.0593663 2 2 3
0.0937244 -0.0593456 -0.0593456 2 2 3
0.093707 -0.059325 -0.059325 2 2 3
0.0936898 -0.0593043 -0.0593043 2 2 3
0.0936727 -0.0592837 -0.0592837 2 2 3
0.0936558 -0.0592632 -0.0592632 2 2 3
0.093639 -0.0592426 -0.0592426 2 2 3
0.0936223 -0.0592221 -0.0592221 2 2 3
0.0936058 -0.0592016 -0.0592016 2 2 3
0.0935894 -0.0591811 -0.0591811 2 2 3
0.0935731 -0.0591606 -0.0591606 2 2 3
0.093557 -0.0591402 -0.0591402 2 2 3
0.0935411 -0.0591198 -0.0591198 2 2 3
0.0935252 -0.0590994 -0.0590994 2 2 3
0.0935096 -0.0590791 -0.0590791 2 2 3
0.093494 -0.0590588 -0.0590588 2 2 3
0.0934786 -0.0590385 -0.0590385 2 2 3
0.0934633 -0.0590182 -0.0590182 2 2 3
0.0934482 -0.058998 -0.058998 2 2 3
0.0934332 -0.0589777 -0.0589777 2 2 3
0.0934184 -0.0589575 -0.0589575 2 2 3
0.0934037 -0.0589374 -0.0589374 2 2 3
0.0933892 -0.0589172 -0.0589172 2 2 3
0.0933747 -0.0588971 -0.0588971 2 2 3
0.0933605 -0.058877 -0.058877 2 2 3
0.0933463 -0.058857 -0.058857 2 2 3
0.0933323 -0.0588369 -0.0588369 2 2 3
0.0933185 -0.0588169 -0.0588169 2 2 3
0.0933048 -0.058797 -0.058797 2 2 3
0.0932912 -0.058777 -0.058777 2 2 3
0.0932778 -0.0587571 -0.0587571 2 2 3
0.0932645 -0.0587372 -0.0587372 2 2 3
0.0932514 -0.0587173 -0.0587173 2 2 3
0.0932384 -0.0586975 -0.0586975 2 2 3
0.0932255 -0.0586776 -0.0586776 2 2 3
0.0932128 -0.0586578 -0.0586578 2 2 3
0.0932003 -0.0586381 -0.0586381 2 2 3
0.0931878 -0.0586183 -0.0586183 2 2 3
0.0931756 -0.0585986 -0.0585986 2 2 3
0.0931634 -0.058579 -0.058579 2 2 3
0.0931514 -0.0585593 -0.0585593 2 2 3
0.0931396 -0.0585397 -0.0585397 2 2 3
0.0931279 -0.0585201 -0.0585201 2 2 3
0.0931163 -0.0585005 -0.0585005 2 2 3
0.0931049 -0.058481 -0.058481 2 2 3
0.0930936 -0.0584615 -0.0584615 2 2 3
0.0930825 -0.058442 -0.058442 2 2 3
0.0930715 -0.0584225 -0.0584225 2 2 3
0.0930607 -0.0584031 -0.0584031 2 2 3
0.09305 -0.0583837 -0.0583837 2 2 3
0.0930394 -0.0583643 -0.0583643 2 2 3
0.093029 -0.058345 -0.058345 2 2 3
0.0930187 -0.0583257 -0.0583257 2 2 3
0.0930086 -0.0583064 -0.0583064 2 2 3
0.0929987 -0.0582871 -0.0582871 2 2 3
0.0929888 -0.0582679 -0.0582679 2 2 3
0.0929792 -0.0582487 -0.0582487 2 2 3
0.0929696 -0.0582296 -0.0582296 2 2 3
0.0929602 -0.0582104 -0.0582104 2 2 3
0.092951 -0.0581913 -0.0581913 2 2 3
0.0929419 -0.0581722 -0.0581722 2 2 3
0.092933 -0.0581532 -0.0581532 2 2 3
0.0929242 -0.0581342 -0.0581342 2 2 3
0.0929155 -0.0581152 -0.0581152 2 2 3
0.092907 -0.0580962 -0.0580962 2 2 3
0.0928987 -0.0580773 -0.0580773 2 2 3
0.0928905 -0.0580584 -0.0580584 2 2 3
0.0928824 -0.0580395 -0.0580395 2 2 3
0.0928745 -0.0580207 -0.0580207 2 2 3
0.0928667 -0.0580019 -0.0580019 2 2 3
0.0928591 -0.0579831 -0.0579831 2 2 3
0.0928517 -0.0579643 -0.0579643 2 2 3
0.0928443 -0.0579456 -0.0579456 2 2 3
0.0928372 -0.0579269 -0.0579269 2 2 3
0.0928302 -0.0579083 -0.0579083 2 2 3
0.0928233 -0.0578896 -0.0578896 2 2 3
0.0928166 -0.0578711 -0.0578711 2 2 3
0.09281 -0.0578525 -0.0578525 2 2 3
0.0928036 -0.057834 -0.057834 2 2 3
0.0927974 -0.0578154 -0.0578154 2 2 3
0.0927912 -0.057797 -0.057797 2 2 3
0.0927853 -0.0577785 -0.0577785 2 2 3
0.0927795 -0.0577601 -0.0577601 2 2 3
0.0927738 -0.0577417 -0.0577417 2 2 3
0.0927683 -0.0577234 -0.0577234 2 2 3
0.092763 -0.0577051 -0.0577051 2 2 3
0.0927578 -0.0576868 -0.0576868 2 2 3
0.0927527 -0.0576685 -0.0576685 2 2 3
0.0927479 -0.0576503 -0.0576503 2 2 3
0.0927431 -0.0576321 -0.0576321 2 2 3
0.0927385 -0.057614 -0.057614 2 2 3
0.0927341 -0.0575958 -0.0575958 2 2 3
0.0927298 -0.0575777 -0.0575777 2 2 3
0.0927257 -0.0575597 -0.0575597 2 2 3
0.0927218 -0.0575416 -0.0575416 2 2 3
0.092718 -0.0575236 -0.0575236 2 2 3
0.0927143 -0.0575057 -0.0575057 2 2 3
0.0927108 -0.0574877 -0.0574877 2 2 3
0.0927075 -0.0574698 -0.0574698 2 2 3
0.0927043 -0.057452 -0.057452 2 2 3
0.0927013 -0.0574341 -0.0574341 2 2 3
0.0926984 -0.0574163 -0.0574163 2 2 3
0.0926957 -0.0573985 -0.0573985 2 2 3
0.0926931 -0.0573808 -0.0573808 2 2 3
0.0926908 -0.0573631 -0.0573631 2 2 3
0.0926885 -0.0573454 -0.0573454 2 2 3
0.0926864 -0.0573278 -0.0573278 2 2 3
0.0926845 -0.0573101 -0.0573101 2 2 3
0.0926828 -0.0572926 -0.0572926 2 2 3
0.0926812 -0.057275 -0.057275 2 2 3
0.0926798 -0.0572575 -0.0572575 2 2 3
0.0926785 -0.05724 -0.05724 2 2 3
0.0926774 -0.0572226 -0.0572226 2 2 3
0.0926764 -0.0572052 -0.0572052 2 2 3
0.0926756 -0.0571878 -0.0571878 2 2 3
0.092675 -0.0571704 -0.0571704 2 2 3
0.0926745 -0.0571531 -0.0571531 2 2 3
0.0926743 -0.0571358 -0.0571358 2 2 3
0.0926741 -0.0571186 -0.0571186 2 2 3
0.0926741 -0.0571014 -0.0571014 2 2 3
0.0926743 -0.0570842 -0.0570842 2 2 3
0.0926747 -0.057067 -0.057067 2 2 3
0.0926752 -0.0570499 -0.0570499 2 2 3
0.0926759 -0.0570328 -0.0570328 2 2 3
0.0926768 -0.0570158 -0.0570158 2 2 3
0.0926778 -0.0569988 -0.0569988 2 2 3
0.092679 -0.0569818 -0.0569818 2 2 3
0.0926803 -0.0569649 -0.0569649 2 2 3
0.0926819 -0.0569479 -0.0569479 2 2 3
0.0926836 -0.0569311 -0.0569311 2 2 3
0.0926854 -0.0569142 -0.0569142 2 2 3
0.0926875 -0.0568974 -0.0568974 2 2 3
0.0926897 -0.0568806 -0.0568806 2 2 3
0.092692 -0.0568639 -0.0568639 2 2 3
0.0926946 -0.0568472 -0.0568472 2 2 3
0.0926973 -0.0568305 -0.0568305 2 2 3
0.0927002 -0.0568139 -0.0568139 2 2 3
0.0927032 -0.0567973 -0.0567973 2 2 3
0.0927064 -0.0567807 -0.0567807 2 2 3
0.0927099 -0.0567642 -0.0567642 2 2 3
0.0927134 -0.0567477 -0.0567477 2 2 3
0.0927172 -0.0567312 -0.0567312 2 2 3
0.0927211 -0.0567148 -0.0567148 2 2 3
0.0927252 -0.0566984 -0.0566984 2 2 3
0.0927295 -0.0566821 -0.0566821 2 2 3
0.0927339 -0.0566657 -0.0566657 2 2 3
0.0927386 -0.0566494 -0.0566494 2 2 3
0.0927434 -0.0566332 -0.0566332 2 2 3
0.0927483 -0.056617 -0.056617 2 2 3
0.0927535 -0.0566008 -0.0566008 2 2 3
0.0927588 -0.0565846 -0.0565846 2 2 3
