-0.0238075 0.0408469 0.0408469 2 3 3
-0.0238319 0.0407875 0.0407875 2 3 3
-0.0238562 0.0407281 0.0407281 2 3 3
-0.0238803 0.0406688 0.0406688 2 3 3
-0.0239043 0.0406096 0.0406096 2 3 3
-0.0239281 0.0405504 0.0405504 2 3 3
-0.0239518 0.0404912 0.0404912 2 3 3
-0.0239753 0.040432 0.040432 2 3 3
-0.0239987 0.0403729 0.0403729 2 3 3
-0.024022 0.0403139 0.0403139 2 3 3
-0.0240451 0.0402549 0.0402549 2 3 3
-0.024068 0.0401959 0.0401959 2 3 3
-0.0240908 0.040137 0.040137 2 3 3
-0.0241135 0.0400781 0.0400781 2 3 3
-0.024136 0.0400193 0.0400193 2 3 3
-0.0241584 0.0399605 0.0399605 2 3 3
-0.0241807 0.0399017 0.0399017 2 3 3
-0.0242028 0.039843 0.039843 2 3 3
-0.0242248 0.0397844 0.0397844 2 3 3
-0.0242466 0.0397258 0.0397258 2 3 3
-0.0242683 0.0396672 0.0396672 2 3 3
-0.0242898 0.0396087 0.0396087 2 3 3
-0.0243112 0.0395502 0.0395502 2 3 3
-0.0243325 0.0394918 0.0394918 2 3 3
-0.0243536 0.0394334 0.0394334 2 3 3
-0.0243746 0.039375 0.039375 2 3 3
-0.0243955 0.0393167 0.0393167 2 3 3
-0.0244162 0.0392585 0.0392585 2 3 3
-0.0244368 0.0392003 0.0392003 2 3 3
-0.0244573 0.0391421 0.0391421 2 3 3
-0.0244776 0.039084 0.039084 2 3 3
-0.0244978 0.0390259 0.0390259 2 3 3
-0.0245178 0.0389679 0.0389679 2 3 3
-0.0245377 0.03891 0.03891 2 3 3
-0.0245575 0.038852 0.038852 2 3 3
-0.0245772 0.0387942 0.0387942 2 3 3
-0.0245967 0.0387363 0.0387363 2 3 3
-0.024616 0.0386786 0.0386786 2 3 3
-0.0246353 0.0386208 0.0386208 2 3 3
-0.0246544 0.0385631 0.0385631 2 3 3
-0.0246734 0.0385055 0.0385055 2 3 3
-0.0246922 0.0384479 0.0384479 2 3 3
-0.024711 0.0383904 0.0383904 2 3 3
-0.0247295 0.0383329 0.0383329 2 3 3
-0.024748 0.0382755 0.0382755 2 3 3
-0.0247663 0.0382181 0.0382181 2 3 3
-0.0247845 0.0381607 0.0381607 2 3 3
-0.0248026 0.0381035 0.0381035 2 3 3
-0.0248205 0.0380462 0.0380462 2 3 3
-0.0248383 0.037989 0.037989 2 3 3
-0.024856 0.0379319 0.0379319 2 3 3
-0.0248736 0.0378748 0.0378748 2 3 3
-0.024891 0.0378178 0.0378178 2 3 3
-0.0249083 0.0377608 0.0377608 2 3 3
-0.0249255 0.0377038 0.0377038 2 3 3
-0.0249425 0.0376469 0.0376469 2 3 3
-0.0249595 0.0375901 0.0375901 2 3 3
-0.0249762 0.0375333 0.0375333 2 3 3
-0.0249929 0.0374766 0.0374766 2 3 3
-0.0250095 0.0374199 0.0374199 2 3 3
-0.0250259 0.0373633 0.0373633 2 3 3
-0.0250422 0.0373067 0.0373067 2 3 3
-0.0250584 0.0372502 0.0372502 2 3 3
-0.0250744 0.0371937 0.0371937 2 3 3
-0.0250903 0.0371373 0.0371373 2 3 3
-0.0251061 0.0370809 0.0370809 2 3 3
-0.0251218 0.0370246 0.0370246 2 3 3
-0.0251374 0.0369683 0.0369683 2 3 3
-0.0251528 0.0369121 0.0369121 2 3 3
-0.0251681 0.0368559 0.0368559 2 3 3
-0.0251833 0.0367998 0.0367998 2 3 3
-0.0251984 0.0367438 0.0367438 2 3 3
-0.0252134 0.0366878 0.0366878 2 3 3
-0.0252282 0.0366318 0.0366318 2 3 3
-0.0252429 0.0365759 0.0365759 2 3 3
-0.0252575 0.0365201 0.0365201 2 3 3
-0.025272 0.0364643 0.0364643 2 3 3
-0.0252864 0.0364086 0.0364086 2 3 3
-0.0253006 0.0363529 0.0363529 2 3 3
-0.0253147 0.0362973 0.0362973 2 3 3
-0.0253287 0.0362417 0.0362417 2 3 3
-0.0253426 0.0361862 0.0361862 2 3 3
-0.0253564 0.0361307 0.0361307 2 3 3
-0.02537 0.0360753 0.0360753 2 3 3
-0.0253836 0.03602 0.03602 2 3 3
-0.025397 0.0359647 0.0359647 2 3 3
-0.0254103 0.0359094 0.0359094 2 3 3
-0.0254235 0.0358542 0.0358542 2 3 3
-0.0254366 0.0357991 0.0357991 2 3 3
-0.0254496 0.035744 0.035744 2 3 3
-0.0254624 0.035689 0.035689 2 3 3
-0.0254752 0.0356341 0.0356341 2 3 3
-0.0254878 0.0355792 0.0355792 2 3 3
-0.0255003 0.0355243 0.0355243 2 3 3
-0.0255127 0.0354695 0.0354695 2 3 3
-0.025525 0.0354148 0.0354148 2 3 3
-0.0255372 0.0353601 0.0353601 2 3 3
-0.0255493 0.0353054 0.0353054 2 3 3
-0.0255612 0.0352509 0.0352509 2 3 3
-0.0255731 0.0351964 0.0351964 2 3 3
-0.0255848 0.0351419 0.0351419 2 3 3
-0.0255964 0.0350875 0.0350875 2 3 3
-0.0256079 0.0350332 0.0350332 2 3 3
-0.0256193 0.0349789 0.0349789 2 3 3
-0.0256306 0.0349246 0.0349246 2 3 3
-0.0256418 0.0348705 0.0348705 2 3 3
-0.0256529 0.0348163 0.0348163 2 3 3
-0.0256639 0.0347623 0.0347623 2 3 3
-0.0256748 0.0347083 0.0347083 2 3 3
-0.0256855 0.0346543 0.0346543 2 3 3
-0.0256962 0.0346004 0.0346004 2 3 3
-0.0257067 0.0345466 0.0345466 2 3 3
-0.0257172 0.0344928 0.0344928 2 3 3
-0.0257275 0.0344391 0.0344391 2 3 3
-0.0257377 0.0343855 0.0343855 2 3 3
-0.0257478 0.0343319 0.0343319 2 3 3
-0.0257579 0.0342783 0.0342783 2 3 3
-0.0257678 0.0342249 0.0342249 2 3 3
-0.0257776 0.0341714 0.0341714 2 3 3
-0.0257873 0.0341181 0.0341181 2 3 3
-0.0257969 0.0340648 0.0340648 2 3 3
-0.0258064 0.0340115 0.0340115 2 3 3
-0.0258158 0.0339583 0.0339583 2 3 3
-0.0258251 0.0339052 0.0339052 2 3 3
-0.0258343 0.0338521 0.0338521 2 3 3
-0.0258434 0.0337991 0.0337991 2 3 3
-0.0258524 0.0337461 0.0337461 2 3 3
-0.0258613 0.0336933 0.0336933 2 3 3
-0.0258701 0.0336404 0.0336404 2 3 3
-0.0258787 0.0335876 0.0335876 2 3 3
-0.0258873 0.0335349 0.0335349 2 3 3
-0.0258958 0.0334823 0.0334823 2 3 3
-0.0259042 0.0334297 0.0334297 2 3 3
-0.0259125 0.0333771 0.0333771 2 3 3
-0.0259207 0.0333246 0.0333246 2 3 3
-0.0259288 0.0332722 0.0332722 2 3 3
-0.0259368 0.0332199 0.0332199 2 3 3
-0.0259447 0.0331676 0.0331676 2 3 3
-0.0259525 0.0331153 0.0331153 2 3 3
-0.0259602 0.0330631 0.0330631 2 3 3
-0.0259678 0.033011 0.033011 2 3 3
-0.0259753 0.032959 0.032959 2 3 3
-0.0259827 0.032907 0.032907 2 3 3
-0.02599 0.032855 0.032855 2 3 3
-0.0259973 0.0328031 0.0328031 2 3 3
-0.0260044 0.0327513 0.0327513 2 3 3
-0.0260114 0.0326996 0.0326996 2 3 3
-0.0260184 0.0326479 0.0326479 2 3 3
-0.0260252 0.0325962 0.0325962 2 3 3
-0.026032 0.0325446 0.0325446 2 3 3
-0.0260386 0.0324931 0.0324931 2 3 3
-0.0260452 0.0324417 0.0324417 2 3 3
-0.0260516 0.0323903 0.0323903 2 3 3
-0.026058 0.0323389 0.0323389 2 3 3
-0.0260643 0.0322877 0.0322877 2 3 3
-0.0260705 0.0322365 0.0322365 2 3 3
-0.0260766 0.0321853 0.0321853 2 3 3
-0.0260826 0.0321342 0.0321342 2 3 3
-0.0260885 0.0320832 0.0320832 2 3 3
-0.0260944 0.0320322 0.0320322 2 3 3
-0.0261001 0.0319813 0.0319813 2 3 3
-0.0261058 0.0319305 0.0319305 2 3 3
-0.0261113 0.0318797 0.0318797 2 3 3
-0.0261168 0.0318289 0.0318289 2 3 3
-0.0261222 0.0317783 0.0317783 2 3 3
-0.0261275 0.0317277 0.0317277 2 3 3
-0.0261327 0.0316771 0.0316771 2 3 3
-0.0261378 0.0316267 0.0316267 2 3 3
-0.0261428 0.0315762 0.0315762 2 3 3
-0.0261477 0.0315259 0.0315259 2 3 3
-0.0261526 0.0314756 0.0314756 2 3 3
-0.0261574 0.0314254 0.0314254 2 3 3
-0.026162 0.0313752 0.0313752 2 3 3
-0.0261666 0.0313251 0.0313251 2 3 3
-0.0261711 0.031275 0.031275 2 3 3
-0.0261756 0.0312251 0.0312251 2 3 3
-0.0261799 0.0311751 0.0311751 2 3 3
-0.0261841 0.0311253 0.0311253 2 3 3
-0.0261883 0.0310755 0.0310755 2 3 3
-0.0261924 0.0310257 0.0310257 2 3 3
-0.0261964 0.0309761 0.0309761 2 3 3
-0.0262003 0.0309265 0.0309265 2 3 3
-0.0262041 0.0308769 0.0308769 2 3 3
-0.0262079 0.0308274 0.0308274 2 3 3
-0.0262115 0.030778 0.030778 2 3 3
-0.0262151 0.0307286 0.0307286 2 3 3
-0.0262186 0.0306793 0.0306793 2 3 3
-0.026222 0.0306301 0.0306301 2 3 3
-0.0262254 0.0305809 0.0305809 2 3 3
-0.0262286 0.0305318 0.0305318 2 3 3
-0.0262318 0.0304828 0.0304828 2 3 3
-0.0262349 0.0304338 0.0304338 2 3 3
-0.0262379 0.0303848 0.0303848 2 3 3
-0.0262408 0.030336 0.030336 2 3 3
-0.0262437 0.0302872 0.0302872 2 3 3
-0.0262464 0.0302384 0.0302384 2 3 3
-0.0262491 0.0301898 0.0301898 2 3 3
-0.0262518 0.0301411 0.0301411 2 3 3
-0.0262543 0.0300926 0.0300926 2 3 3
-0.0262567 0.0300441 0.0300441 2 3 3
-0.0262591 0.0299957 0.0299957 2 3 3
-0.0262614 0.0299473 0.0299473 2 3 3
-0.0262636 0.029899 0.029899 2 3 3
-0.0262658 0.0298508 0.0298508 2 3 3
-0.0262678 0.0298026 0.0298026 2 3 3
-0.0262698 0.0297545 0.0297545 2 3 3
-0.0262717 0.0297064 0.0297064 2 3 3
-0.0262736 0.0296585 0.0296585 2 3 3
-0.0262753 0.0296105 0.0296105 2 3 3
-0.026277 0.0295627 0.0295627 2 3 3
-0.0262786 0.0295149 0.0295149 2 3 3
-0.0262802 0.0294671 0.0294671 2 3 3
-0.0262816 0.0294195 0.0294195 2 3 3
-0.026283 0.0293719 0.0293719 2 3 3
-0.0262843 0.0293243 0.0293243 2 3 3
-0.0262856 0.0292768 0.0292768 2 3 3
-0.0262867 0.0292294 0.0292294 2 3 3
-0.0262878 0.029182 0.029182 2 3 3
-0.0262888 0.0291348 0.0291348 2 3 3
-0.0262898 0.0290875 0.0290875 2 3 3
-0.0262906 0.0290404 0.0290404 2 3 3
-0.0262914 0.0289932 0.0289932 2 3 3
-0.0262922 0.0289462 0.0289462 2 3 3
-0.0262928 0.0288992 0.0288992 2 3 3
-0.0262934 0.0288523 0.0288523 2 3 3
-0.0262939 0.0288055 0.0288055 2 3 3
-0.0262944 0.0287587 0.0287587 2 3 3
-0.0262947 0.0287119 0.0287119 2 3 3
-0.026295 0.0286653 0.0286653 2 3 3
-0.0262953 0.0286187 0.0286187 2 3 3
-0.0262954 0.0285721 0.0285721 2 3 3
-0.0262955 0.0285257 0.0285257 2 3 3
-0.0262955 0.0284793 0.0284793 2 3 3
-0.0262955 0.0284329 0.0284329 2 3 3
-0.0262954 0.0283866 0.0283866 2 3 3
-0.0262952 0.0283404 0.0283404 2 3 3
-0.0262949 0.0282942 0.0282942 2 3 3
-0.0262946 0.0282481 0.0282481 2 3 3
-0.0262942 0.0282021 0.0282021 2 3 3
-0.0262938 0.0281561 0.0281561 2 3 3
-0.0262932 0.0281102 0.0281102 2 3 3
-0.0262926 0.0280644 0.0280644 2 3 3
-0.026292 0.0280186 0.0280186 2 3 3
-0.0262913 0.0279729 0.0279729 2 3 3
-0.0262905 0.0279272 0.0279272 2 3 3
-0.0262896 0.0278817 0.0278817 2 3 3
-0.0262887 0.0278361 0.0278361 2 3 3
-0.0262877 0.0277907 0.0277907 2 3 3
-0.0262867 0.0277453 0.0277453 2 3 3
-0.0262855 0.0276999 0.0276999 2 3 3
-0.0262844 0.0276546 0.0276546 2 3 3
-0.0262831 0.0276094 0.0276094 2 3 3
-0.0262818 0.0275643 0.0275643 2 3 3
-0.0262804 0.0275192 0.0275192 2 3 3
-0.026279 0.0274742 0.0274742 2 3 3
-0.0262775 0.0274292 0.0274292 2 3 3
-0.0262759 0.0273843 0.0273843 2 3 3
-0.0262743 0.0273395 0.0273395 2 3 3
-0.0262726 0.0272947 0.0272947 2 3 3
-0.0262709 0.02725 0.02725 2 3 3
-0.0262691 0.0272054 0.0272054 2 3 3
-0.0262672 0.0271608 0.0271608 2 3 3
-0.0262653 0.0271163 0.0271163 2 3 3
-0.0262633 0.0270718 0.0270718 2 3 3
-0.0262612 0.0270274 0.0270274 2 3 3
-0.0262591 0.0269831 0.0269831 2 3 3
-0.0262569 0.0269388 0.0269388 2 3 3
-0.0262547 0.0268946 0.0268946 2 3 3
-0.0262524 0.0268505 0.0268505 2 3 3
-0.02625 0.0268064 0.0268064 2 3 3
-0.0262476 0.0267624 0.0267624 2 3 3
-0.0262451 0.0267184 0.0267184 2 3 3
-0.0262426 0.0266745 0.0266745 2 3 3
-0.02624 0.0266307 0.0266307 2 3 3
-0.0262373 0.026587 0.026587 2 3 3
-0.0262346 0.0265433 0.0265433 2 3 3
-0.0262318 0.0264996 0.0264996 2 3 3
-0.026229 0.026456 0.026456 2 3 3
-0.0262261 0.0264125 0.0264125 2 3 3
-0.0262232 0.0263691 0.0263691 2 3 3
-0.0262202 0.0263257 0.0263257 2 3 3
-0.0262171 0.0262824 0.0262824 2 3 3
-0.026214 0.0262391 0.0262391 2 3 3
-0.0262108 0.0261959 0.0261959 2 3 3
-0.0262076 0.0261528 0.0261528 2 3 3
-0.0262043 0.0261097 0.0261097 2 3 3
-0.026201 0.0260667 0.0260667 2 3 3
-0.0261976 0.0260237 0.0260237 2 3 3
-0.0261942 0.0259809 0.0259809 2 3 3
-0.0261907 0.025938 0.025938 2 3 3
-0.0261871 0.0258953 0.0258953 2 3 3
-0.0261835 0.0258526 0.0258526 2 3 3
-0.0261798 0.0258099 0.0258099 2 3 3
-0.0261761 0.0257674 0.0257674 2 3 3
-0.0261723 0.0257249 0.0257249 2 3 3
-0.0261685 0.0256824 0.0256824 2 3 3
-0.0261646 0.02564 0.02564 2 3 3
-0.0261607 0.0255977 0.0255977 2 3 3
-0.0261567 0.0255554 0.0255554 2 3 3
-0.0261527 0.0255132 0.0255132 2 3 3
-0.0261486 0.0254711 0.0254711 2 3 3
-0.0261444 0.025429 0.025429 2 3 3
-0.0261402 0.025387 0.025387 2 3 3
-0.026136 0.0253451 0.0253451 2 3 3
-0.0261317 0.0253032 0.0253032 2 3 3
-0.0261273 0.0252614 0.0252614 2 3 3
-0.0261229 0.0252196 0.0252196 2 3 3
-0.0261185 0.0251779 0.0251779 2 3 3
-0.026114 0.0251362 0.0251362 2 3 3
-0.0261094 0.0250947 0.0250947 2 3 3
-0.0261048 0.0250532 0.0250532 2 3 3
-0.0261002 0.0250117 0.0250117 2 3 3
-0.0260955 0.0249703 0.0249703 2 3 3
-0.0260907 0.024929 0.024929 2 3 3
-0.0260859 0.0248877 0.0248877 2 3 3
-0.0260811 0.0248465 0.0248465 2 3 3
-0.0260762 0.0248054 0.0248054 2 3 3
-0.0260712 0.0247643 0.0247643 2 3 3
-0.0260662 0.0247233 0.0247233 2 3 3
-0.0260612 0.0246823 0.0246823 2 3 3
-0.0260561 0.0246414 0.0246414 2 3 3
-0.0260509 0.0246006 0.0246006 2 3 3
-0.0260457 0.0245598 0.0245598 2 3 3
-0.0260405 0.0245191 0.0245191 2 3 3
-0.0260352 0.0244784 0.0244784 2 3 3
-0.0260299 0.0244378 0.0244378 2 3 3
-0.0260245 0.0243973 0.0243973 2 3 3
-0.0260191 0.0243568 0.0243568 2 3 3
-0.0260136 0.0243164 0.0243164 2 3 3
-0.0260081 0.0242761 0.0242761 2 3 3
-0.0260025 0.0242358 0.0242358 2 3 3
-0.0259969 0.0241956 0.0241956 2 3 3
-0.0259913 0.0241554 0.0241554 2 3 3
-0.0259856 0.0241153 0.0241153 2 3 3
-0.0259798 0.0240753 0.0240753 2 3 3
-0.0259741 0.0240353 0.0240353 2 3 3
-0.0259682 0.0239954 0.0239954 2 3 3
-0.0259624 0.0239555 0.0239555 2 3 3
-0.0259564 0.0239158 0.0239158 2 3 3
-0.0259505 0.023876 0.023876 2 3 3
-0.0259445 0.0238363 0.0238363 2 3 3
-0.0259384 0.0237967 0.0237967 2 3 3
-0.0259323 0.0237572 0.0237572 2 3 3
-0.0259262 0.0237177 0.0237177 2 3 3
-0.02592 0.0236783 0.0236783 2 3 3
-0.0259138 0.0236389 0.0236389 2 3 3
-0.0259075 0.0235996 0.0235996 2 3 3
-0.0259012 0.0235603 0.0235603 2 3 3
-0.0258948 0.0235212 0.0235212 2 3 3
-0.0258884 0.023482 0.023482 2 3 3
-0.025882 0.023443 0.023443 2 3 3
-0.0258755 0.023404 0.023404 2 3 3
-0.025869 0.023365 0.023365 2 3 3
-0.0258625 0.0233261 0.0233261 2 3 3
-0.0258559 0.0232873 0.0232873 2 3 3
-0.0258492 0.0232485 0.0232485 2 3 3
-0.0258425 0.0232098 0.0232098 2 3 3
-0.0258358 0.0231712 0.0231712 2 3 3
-0.0258291 0.0231326 0.0231326 2 3 3
-0.0258222 0.0230941 0.0230941 2 3 3
-0.0258154 0.0230556 0.0230556 2 3 3
-0.0258085 0.0230172 0.0230172 2 3 3
-0.0258016 0.0229789 0.0229789 2 3 3
-0.0257946 0.0229406 0.0229406 2 3 3
-0.0257876 0.0229024 0.0229024 2 3 3
-0.0257806 0.0228642 0.0228642 2 3 3
-0.0257735 0.0228261 0.0228261 2 3 3
-0.0257664 0.0227881 0.0227881 2 3 3
-0.0257593 0.0227501 0.0227501 2 3 3
-0.0257521 0.0227122 0.0227122 2 3 3
-0.0257448 0.0226743 0.0226743 2 3 3
-0.0257376 0.0226365 0.0226365 2 3 3
-0.0257303 0.0225987 0.0225987 2 3 3
-0.0257229 0.0225611 0.0225611 2 3 3
-0.0257155 0.0225234 0.0225234 2 3 3
-0.0257081 0.0224859 0.0224859 2 3 3
-0.0257007 0.0224484 0.0224484 2 3 3
-0.0256932 0.0224109 0.0224109 2 3 3
-0.0256857 0.0223735 0.0223735 2 3 3
-0.0256781 0.0223362 0.0223362 2 3 3
-0.0256705 0.0222989 0.0222989 2 3 3
-0.0256629 0.0222617 0.0222617 2 3 3
-0.0256552 0.0222245 0.0222245 2 3 3
-0.0256475 0.0221875 0.0221875 2 3 3
-0.0256397 0.0221504 0.0221504 2 3 3
-0.025632 0.0221134 0.0221134 2 3 3
-0.0256241 0.0220765 0.0220765 2 3 3
-0.0256163 0.0220397 0.0220397 2 3 3
-0.0256084 0.0220029 0.0220029 2 3 3
-0.0256005 0.0219661 0.0219661 2 3 3
-0.0255926 0.0219294 0.0219294 2 3 3
-0.0255846 0.0218928 0.0218928 2 3 3
-0.0255765 0.0218562 0.0218562 2 3 3
-0.0255685 0.0218197 0.0218197 2 3 3
-0.0255604 0.0217833 0.0217833 2 3 3
-0.0255523 0.0217469 0.0217469 2 3 3
-0.0255441 0.0217106 0.0217106 2 3 3
-0.025536 0.0216743 0.0216743 2 3 3
-0.0255277 0.0216381 0.0216381 2 3 3
-0.0255195 0.0216019 0.0216019 2 3 3
-0.0255112 0.0215658 0.0215658 2 3 3
-0.0255029 0.0215298 0.0215298 2 3 3
-0.0254945 0.0214938 0.0214938 2 3 3
-0.0254862 0.0214578 0.0214578 2 3 3
-0.0254777 0.021422 0.021422 2 3 3
-0.0254693 0.0213862 0.0213862 2 3 3
-0.0254608 0.0213504 0.0213504 2 3 3
-0.0254523 0.0213147 0.0213147 2 3 3
-0.0254438 0.0212791 0.0212791 2 3 3
-0.0254352 0.0212435 0.0212435 2 3 3
-0.0254266 0.021208 0.021208 2 3 3
-0.025418 0.0211725 0.0211725 2 3 3
-0.0254093 0.0211371 0.0211371 2 3 3
-0.0254006 0.0211017 0.0211017 2 3 3
-0.0253919 0.0210664 0.0210664 2 3 3
-0.0253831 0.0210312 0.0210312 2 3 3
-0.0253744 0.020996 0.020996 2 3 3
-0.0253655 0.0209609 0.0209609 2 3 3
-0.0253567 0.0209258 0.0209258 2 3 3
-0.0253478 0.0208908 0.0208908 2 3 3
-0.0253389 0.0208559 0.0208559 2 3 3
-0.02533 0.020821 0.020821 2 3 3
-0.025321 0.0207861 0.0207861 2 3 3
-0.025312 0.0207514 0.0207514 2 3 3
-0.025303 0.0207166 0.0207166 2 3 3
-0.025294 0.020682 0.020682 2 3 3
-0.0252849 0.0206473 0.0206473 2 3 3
-0.0252758 0.0206128 0.0206128 2 3 3
-0.0252667 0.0205783 0.0205783 2 3 3
-0.0252575 0.0205438 0.0205438 2 3 3
-0.0252483 0.0205095 0.0205095 2 3 3
-0.0252391 0.0204751 0.0204751 2 3 3
-0.0252299 0.0204409 0.0204409 2 3 3
-0.0252206 0.0204066 0.0204066 2 3 3
-0.0252113 0.0203725 0.0203725 2 3 3
-0.025202 0.0203384 0.0203384 2 3 3
-0.0251926 0.0203043 0.0203043 2 3 3
-0.0251833 0.0202703 0.0202703 2 3 3
-0.0251739 0.0202364 0.0202364 2 3 3
-0.0251644 0.0202025 0.0202025 2 3 3
-0.025155 0.0201687 0.0201687 2 3 3
-0.0251455 0.0201349 0.0201349 2 3 3
-0.025136 0.0201012 0.0201012 2 3 3
-0.0251265 0.0200675 0.0200675 2 3 3
-0.0251169 0.0200339 0.0200339 2 3 3
-0.0251073 0.0200004 0.0200004 2 3 3
-0.0250977 0.0199669 0.0199669 2 3 3
-0.0250881 0.0199334 0.0199334 2 3 3
-0.0250784 0.0199001 0.0199001 2 3 3
-0.0250687 0.0198667 0.0198667 2 3 3
-0.025059 0.0198335 0.0198335 2 3 3
-0.0250493 0.0198002 0.0198002 2 3 3
-0.0250395 0.0197671 0.0197671 2 3 3
-0.0250297 0.019734 0.019734 2 3 3
-0.0250199 0.0197009 0.0197009 2 3 3
-0.0250101 0.0196679 0.0196679 2 3 3
-0.0250003 0.019635 0.019635 2 3 3
-0.0249904 0.0196021 0.0196021 2 3 3
-0.0249805 0.0195692 0.0195692 2 3 3
-0.0249705 0.0195365 0.0195365 2 3 3
-0.0249606 0.0195037 0.0195037 2 3 3
-0.0249506 0.0194711 0.0194711 2 3 3
-0.0249406 0.0194384 0.0194384 2 3 3
-0.0249306 0.0194059 0.0194059 2 3 3
-0.0249206 0.0193734 0.0193734 2 3 3
-0.0249105 0.0193409 0.0193409 2 3 3
-0.0249004 0.0193085 0.0193085 2 3 3
-0.0248903 0.0192762 0.0192762 2 3 3
-0.0248802 0.0192439 0.0192439 2 3 3
-0.02487 0.0192116 0.0192116 2 3 3
-0.0248599 0.0191795 0.0191795 2 3 3
-0.0248497 0.0191473 0.0191473 2 3 3
-0.0248394 0.0191152 0.0191152 2 3 3
-0.0248292 0.0190832 0.0190832 2 3 3
-0.0248189 0.0190512 0.0190512 2 3 3
-0.0248087 0.0190193 0.0190193 2 3 3
-0.0247984 0.0189875 0.0189875 2 3 3
-0.024788 0.0189557 0.0189557 2 3 3
-0.0247777 0.0189239 0.0189239 2 3 3
-0.0247673 0.0188922 0.0188922 2 3 3
-0.0247569 0.0188605 0.0188605 2 3 3
-0.0247465 0.018829 0.018829 2 3 3
-0.0247361 0.0187974 0.0187974 2 3 3
-0.0247256 0.0187659 0.0187659 2 3 3
-0.0247152 0.0187345 0.0187345 2 3 3
-0.0247047 0.0187031 0.0187031 2 3 3
-0.0246942 0.0186718 0.0186718 2 3 3
-0.0246836 0.0186405 0.0186405 2 3 3
-0.0246731 0.0186093 0.0186093 2 3 3
-0.0246625 0.0185781 0.0185781 2 3 3
-0.0246519 0.018547 0.018547 2 3 3
-0.0246413 0.0185159 0.0185159 2 3 3
-0.0246307 0.0184849 0.0184849 2 3 3
-0.0246201 0.0184539 0.0184539 2 3 3
-0.0246094 0.018423 0.018423 2 3 3
-0.0245987 0.0183921 0.0183921 2 3 3
-0.024588 0.0183613 0.0183613 2 3 3
-0.0245773 0.0183306 0.0183306 2 3 3
-0.0245666 0.0182999 0.0182999 2 3 3
-0.0245558 0.0182692 0.0182692 2 3 3
-0.024545 0.0182386 0.0182386 2 3 3
-0.0245343 0.0182081 0.0182081 2 3 3
-0.0245234 0.0181776 0.0181776 2 3 3
-0.0245126 0.0181471 0.0181471 2 3 3
-0.0245018 0.0181167 0.0181167 2 3 3
-0.0244909 0.0180864 0.0180864 2 3 3
-0.02448 0.0180561 0.0180561 2 3 3
-0.0244691 0.0180259 0.0180259 2 3 3
-0.0244582 0.0179957 0.0179957 2 3 3
-0.0244473 0.0179655 0.0179655 2 3 3
-0.0244363 0.0179354 0.0179354 2 3 3
-0.0244254 0.0179054 0.0179054 2 3 3
-0.0244144 0.0178754 0.0178754 2 3 3
-0.0244034 0.0178455 0.0178455 2 3 3
-0.0243924 0.0178156 0.0178156 2 3 3
-0.0243814 0.0177858 0.0177858 2 3 3
-0.0243703 0.017756 0.017756 2 3 3
-0.0243592 0.0177263 0.0177263 2 3 3
-0.0243482 0.0176966 0.0176966 2 3 3
-0.0243371 0.017667 0.017667 2 3 3
-0.024326 0.0176374 0.0176374 2 3 3
-0.0243148 0.0176079 0.0176079 2 3 3
-0.0243037 0.0175784 0.0175784 2 3 3
-0.0242925 0.017549 0.017549 2 3 3
-0.0242814 0.0175196 0.0175196 2 3 3
-0.0242702 0.0174903 0.0174903 2 3 3
-0.024259 0.017461 0.017461 2 3 3
-0.0242477 0.0174318 0.0174318 2 3 3
-0.0242365 0.0174026 0.0174026 2 3 3
-0.0242253 0.0173735 0.0173735 2 3 3
-0.024214 0.0173444 0.0173444 2 3 3
-0.0242027 0.0173154 0.0173154 2 3 3
-0.0241914 0.0172864 0.0172864 2 3 3
-0.0241801 0.0172575 0.0172575 2 3 3
-0.0241688 0.0172286 0.0172286 2 3 3
-0.0241575 0.0171998 0.0171998 2 3 3
-0.0241461 0.017171 0.017171 2 3 3
-0.0241348 0.0171423 0.0171423 2 3 3
-0.0241234 0.0171136 0.0171136 2 3 3
-0.024112 0.0170849 0.0170849 2 3 3
-0.0241006 0.0170564 0.0170564 2 3 3
-0.0240892 0.0170278 0.0170278 2 3 3
-0.0240777 0.0169993 0.0169993 2 3 3
-0.0240663 0.0169709 0.0169709 2 3 3
-0.0240548 0.0169425 0.0169425 2 3 3
-0.0240434 0.0169142 0.0169142 2 3 3
-0.0240319 0.0168859 0.0168859 2 3 3
-0.0240204 0.0168577 0.0168577 2 3 3
-0.0240089 0.0168295 0.0168295 2 3 3
-0.0239974 0.0168013 0.0168013 2 3 3
-0.0239858 0.0167732 0.0167732 2 3 3
-0.0239743 0.0167452 0.0167452 2 3 3
-0.0239627 0.0167172 0.0167172 2 3 3
-0.0239512 0.0166893 0.0166893 2 3 3
-0.0239396 0.0166614 0.0166614 2 3 3
-0.023928 0.0166335 0.0166335 2 3 3
-0.0239164 0.0166057 0.0166057 2 3 3
-0.0239047 0.016578 0.016578 2 3 3
-0.0238931 0.0165502 0.0165502 2 3 3
-0.0238815 0.0165226 0.0165226 2 3 3
-0.0238698 0.016495 0.016495 2 3 3
-0.0238582 0.0164674 0.0164674 2 3 3
-0.0238465 0.0164399 0.0164399 2 3 3
-0.0238348 0.0164124 0.0164124 2 3 3
-0.0238231 0.016385 0.016385 2 3 3
-0.0238114 0.0163576 0.0163576 2 3 3
-0.0237997 0.0163303 0.0163303 2 3 3
-0.0237879 0.016303 0.016303 2 3 3
-0.0237762 0.0162758 0.0162758 2 3 3
-0.0237644 0.0162486 0.0162486 2 3 3
-0.0237527 0.0162215 0.0162215 2 3 3
-0.0237409 0.0161944 0.0161944 2 3 3
-0.0237291 0.0161673 0.0161673 2 3 3
-0.0237173 0.0161404 0.0161404 2 3 3
-0.0237055 0.0161134 0.0161134 2 3 3
-0.0236937 0.0160865 0.0160865 2 3 3
-0.0236819 0.0160596 0.0160596 2 3 3
-0.02367 0.0160328 0.0160328 2 3 3
-0.0236582 0.0160061 0.0160061 2 3 3
-0.0236463 0.0159794 0.0159794 2 3 3
-0.0236345 0.0159527 0.0159527 2 3 3
-0.0236226 0.0159261 0.0159261 2 3 3
-0.0236107 0.0158995 0.0158995 2 3 3
-0.0235988 0.015873 0.015873 2 3 3
-0.0235869 0.0158465 0.0158465 2 3 3
-0.023575 0.01582 0.01582 2 3 3
-0.0235631 0.0157936 0.0157936 2 3 3
-0.0235511 0.0157673 0.0157673 2 3 3
-0.0235392 0.015741 0.015741 2 3 3
-0.0235272 0.0157147 0.0157147 2 3 3
-0.0235153 0.0156885 0.0156885 2 3 3
-0.0235033 0.0156624 0.0156624 2 3 3
-0.0234913 0.0156363 0.0156363 2 3 3
-0.0234794 0.0156102 0.0156102 2 3 3
-0.0234674 0.0155842 0.0155842 2 3 3
-0.0234554 0.0155582 0.0155582 2 3 3
-0.0234434 0.0155322 0.0155322 2 3 3
-0.0234313 0.0155064 0.0155064 2 3 3
-0.0234193 0.0154805 0.0154805 2 3 3
-0.0234073 0.0154547 0.0154547 2 3 3
-0.0233952 0.015429 0.015429 2 3 3
-0.0233832 0.0154033 0.0154033 2 3 3
-0.0233711 0.0153776 0.0153776 2 3 3
-0.0233591 0.015352 0.015352 2 3 3
-0.023347 0.0153264 0.0153264 2 3 3
-0.0233349 0.0153009 0.0153009 2 3 3
-0.0233228 0.0152754 0.0152754 2 3 3
-0.0233107 0.0152499 0.0152499 2 3 3
-0.0232986 0.0152245 0.0152245 2 3 3
-0.0232865 0.0151992 0.0151992 2 3 3
-0.0232744 0.0151739 0.0151739 2 3 3
-0.0232623 0.0151486 0.0151486 2 3 3
-0.0232501 0.0151234 0.0151234 2 3 3
-0.023238 0.0150982 0.0150982 2 3 3
-0.0232259 0.0150731 0.0150731 2 3 3
-0.0232137 0.015048 0.015048 2 3 3
-0.0232016 0.015023 0.015023 2 3 3
-0.0231894 0.014998 0.014998 2 3 3
-0.0231772 0.014973 0.014973 2 3 3
-0.023165 0.0149481 0.0149481 2 3 3
-0.0231529 0.0149232 0.0149232 2 3 3
-0.0231407 0.0148984 0.0148984 2 3 3
-0.0231285 0.0148736 0.0148736 2 3 3
-0.0231163 0.0148489 0.0148489 2 3 3
-0.0231041 0.0148242 0.0148242 2 3 3
-0.0230918 0.0147996 0.0147996 2 3 3
-0.0230796 0.014775 0.014775 2 3 3
-0.0230674 0.0147504 0.0147504 2 3 3
-0.0230552 0.0147259 0.0147259 2 3 3
-0.0230429 0.0147014 0.0147014 2 3 3
-0.0230307 0.014677 0.014677 2 3 3
-0.0230184 0.0146526 0.0146526 2 3 3
-0.0230062 0.0146282 0.0146282 2 3 3
-0.0229939 0.0146039 0.0146039 2 3 3
-0.0229817 0.0145797 0.0145797 2 3 3
-0.0229694 0.0145555 0.0145555 2 3 3
-0.0229571 0.0145313 0.0145313 2 3 3
-0.0229448 0.0145071 0.0145071 2 3 3
-0.0229325 0.0144831 0.0144831 2 3 3
-0.0229203 0.014459 0.014459 2 3 3
-0.022908 0.014435 0.014435 2 3 3
-0.0228957 0.014411 0.014411 2 3 3
-0.0228833 0.0143871 0.0143871 2 3 3
-0.022871 0.0143632 0.0143632 2 3 3
-0.0228587 0.0143394 0.0143394 2 3 3
-0.0228464 0.0143156 0.0143156 2 3 3
-0.0228341 0.0142919 0.0142919 2 3 3
-0.0228218 0.0142681 0.0142681 2 3 3
-0.0228094 0.0142445 0.0142445 2 3 3
-0.0227971 0.0142208 0.0142208 2 3 3
-0.0227847 0.0141973 0.0141973 2 3 3
-0.0227724 0.0141737 0.0141737 2 3 3
-0.0227601 0.0141502 0.0141502 2 3 3
-0.0227477 0.0141268 0.0141268 2 3 3
-0.0227353 0.0141033 0.0141033 2 3 3
-0.022723 0.01408 0.01408 2 3 3
-0.0227106 0.0140566 0.0140566 2 3 3
-0.0226982 0.0140333 0.0140333 2 3 3
-0.0226859 0.0140101 0.0140101 2 3 3
-0.0226735 0.0139869 0.0139869 2 3 3
-0.0226611 0.0139637 0.0139637 2 3 3
-0.0226487 0.0139406 0.0139406 2 3 3
-0.0226364 0.0139175 0.0139175 2 3 3
-0.022624 0.0138944 0.0138944 2 3 3
-0.0226116 0.0138714 0.0138714 2 3 3
-0.0225992 0.0138485 0.0138485 2 3 3
-0.0225868 0.0138255 0.0138255 2 3 3
-0.0225744 0.0138026 0.0138026 2 3 3
-0.022562 0.0137798 0.0137798 2 3 3
-0.0225496 0.013757 0.013757 2 3 3
-0.0225372 0.0137342 0.0137342 2 3 3
-0.0225247 0.0137115 0.0137115 2 3 3
-0.0225123 0.0136888 0.0136888 2 3 3
-0.0224999 0.0136662 0.0136662 2 3 3
-0.0224875 0.0136436 0.0136436 2 3 3
-0.0224751 0.013621 0.013621 2 3 3
-0.0224626 0.0135985 0.0135985 2 3 3
-0.0224502 0.013576 0.013576 2 3 3
-0.0224378 0.0135536 0.0135536 2 3 3
-0.0224253 0.0135312 0.0135312 2 3 3
-0.0224129 0.0135088 0.0135088 2 3 3
-0.0224005 0.0134865 0.0134865 2 3 3
-0.022388 0.0134642 0.0134642 2 3 3
-0.0223756 0.0134419 0.0134419 2 3 3
-0.0223631 0.0134197 0.0134197 2 3 3
-0.0223507 0.0133976 0.0133976 2 3 3
-0.0223382 0.0133754 0.0133754 2 3 3
-0.0223258 0.0133534 0.0133534 2 3 3
-0.0223133 0.0133313 0.0133313 2 3 3
-0.0223009 0.0133093 0.0133093 2 3 3
-0.0222884 0.0132873 0.0132873 2 3 3
-0.022276 0.0132654 0.0132654 2 3 3
-0.0222635 0.0132435 0.0132435 2 3 3
-0.022251 0.0132216 0.0132216 2 3 3
-0.0222386 0.0131998 0.0131998 2 3 3
-0.0222261 0.0131781 0.0131781 2 3 3
-0.0222137 0.0131563 0.0131563 2 3 3
-0.0222012 0.0131346 0.0131346 2 3 3
-0.0221887 0.013113 0.013113 2 3 3
-0.0221763 0.0130913 0.0130913 2 3 3
-0.0221638 0.0130698 0.0130698 2 3 3
-0.0221513 0.0130482 0.0130482 2 3 3
-0.0221388 0.0130267 0.0130267 2 3 3
-0.0221264 0.0130052 0.0130052 2 3 3
-0.0221139 0.0129838 0.0129838 2 3 3
-0.0221014 0.0129624 0.0129624 2 3 3
-0.0220889 0.0129411 0.0129411 2 3 3
-0.0220765 0.0129198 0.0129198 2 3 3
-0.022064 0.0128985 0.0128985 2 3 3
-0.0220515 0.0128772 0.0128772 2 3 3
-0.022039 0.012856 0.012856 2 3 3
-0.0220266 0.0128349 0.0128349 2 3 3
-0.0220141 0.0128138 0.0128138 2 3 3
-0.0220016 0.0127927 0.0127927 2 3 3
-0.0219891 0.0127716 0.0127716 2 3 3
-0.0219766 0.0127506 0.0127506 2 3 3
-0.0219642 0.0127296 0.0127296 2 3 3
-0.0219517 0.0127087 0.0127087 2 3 3
-0.0219392 0.0126878 0.0126878 2 3 3
-0.0219267 0.0126669 0.0126669 2 3 3
-0.0219142 0.0126461 0.0126461 2 3 3
-0.0219018 0.0126253 0.0126253 2 3 3
-0.0218893 0.0126046 0.0126046 2 3 3
-0.0218768 0.0125839 0.0125839 2 3 3
-0.0218643 0.0125632 0.0125632 2 3 3
-0.0218518 0.0125425 0.0125425 2 3 3
-0.0218393 0.0125219 0.0125219 2 3 3
-0.0218269 0.0125014 0.0125014 2 3 3
-0.0218144 0.0124808 0.0124808 2 3 3
-0.0218019 0.0124603 0.0124603 2 3 3
-0.0217894 0.0124399 0.0124399 2 3 3
-0.0217769 0.0124195 0.0124195 2 3 3
-0.0217645 0.0123991 0.0123991 2 3 3
-0.021752 0.0123787 0.0123787 2 3 3
-0.0217395 0.0123584 0.0123584 2 3 3
-0.021727 0.0123381 0.0123381 2 3 3
-0.0217146 0.0123179 0.0123179 2 3 3
-0.0217021 0.0122977 0.0122977 2 3 3
-0.0216896 0.0122775 0.0122775 2 3 3
-0.0216771 0.0122574 0.0122574 2 3 3
-0.0216647 0.0122373 0.0122373 2 3 3
-0.0216522 0.0122173 0.0122173 2 3 3
-0.0216397 0.0121972 0.0121972 2 3 3
-0.0216273 0.0121772 0.0121772 2 3 3
-0.0216148 0.0121573 0.0121573 2 3 3
-0.0216023 0.0121374 0.0121374 2 3 3
-0.0215899 0.0121175 0.0121175 2 3 3
-0.0215774 0.0120976 0.0120976 2 3 3
-0.0215649 0.0120778 0.0120778 2 3 3
-0.0215525 0.0120581 0.0120581 2 3 3
-0.02154 0.0120383 0.0120383 2 3 3
-0.0215275 0.0120186 0.0120186 2 3 3
-0.0215151 0.011999 0.011999 2 3 3
-0.0215026 0.0119793 0.0119793 2 3 3
-0.0214902 0.0119597 0.0119597 2 3 3
-0.0214777 0.0119402 0.0119402 2 3 3
-0.0214653 0.0119206 0.0119206 2 3 3
-0.0214528 0.0119011 0.0119011 2 3 3
-0.0214404 0.0118817 0.0118817 2 3 3
-0.0214279 0.0118623 0.0118623 2 3 3
-0.0214155 0.0118429 0.0118429 2 3 3
-0.021403 0.0118235 0.0118235 2 3 3
-0.0213906 0.0118042 0.0118042 2 3 3
-0.0213781 0.0117849 0.0117849 2 3 3
-0.0213657 0.0117657 0.0117657 2 3 3
-0.0213533 0.0117465 0.0117465 2 3 3
-0.0213408 0.0117273 0.0117273 2 3 3
-0.0213284 0.0117081 0.0117081 2 3 3
-0.021316 0.011689 0.011689 2 3 3
-0.0213035 0.0116699 0.0116699 2 3 3
-0.0212911 0.0116509 0.0116509 2 3 3
-0.0212787 0.0116319 0.0116319 2 3 3
-0.0212663 0.0116129 0.0116129 2 3 3
-0.0212538 0.011594 0.011594 2 3 3
-0.0212414 0.0115751 0.0115751 2 3 3
-0.021229 0.0115562 0.0115562 2 3 3
-0.0212166 0.0115373 0.0115373 2 3 3
-0.0212042 0.0115185 0.0115185 2 3 3
-0.0211918 0.0114998 0.0114998 2 3 3
-0.0211794 0.011481 0.011481 2 3 3
-0.021167 0.0114623 0.0114623 2 3 3
-0.0211546 0.0114437 0.0114437 2 3 3
-0.0211422 0.011425 0.011425 2 3 3
-0.0211298 0.0114064 0.0114064 2 3 3
-0.0211174 0.0113878 0.0113878 2 3 3
-0.021105 0.0113693 0.0113693 2 3 3
-0.0210926 0.0113508 0.0113508 2 3 3
-0.0210802 0.0113323 0.0113323 2 3 3
-0.0210678 0.0113139 0.0113139 2 3 3
-0.0210555 0.0112955 0.0112955 2 3 3
-0.0210431 0.0112771 0.0112771 2 3 3
-0.0210307 0.0112588 0.0112588 2 3 3
-0.0210184 0.0112405 0.0112405 2 3 3
-0.021006 0.0112222 0.0112222 2 3 3
-0.0209936 0.0112039 0.0112039 2 3 3
-0.0209813 0.0111857 0.0111857 2 3 3
-0.0209689 0.0111676 0.0111676 2 3 3
-0.0209565 0.0111494 0.0111494 2 3 3
-0.0209442 0.0111313 0.0111313 2 3 3
-0.0209319 0.0111132 0.0111132 2 3 3
-0.0209195 0.0110952 0.0110952 2 3 3
-0.0209072 0.0110772 0.0110772 2 3 3
-0.0208948 0.0110592 0.0110592 2 3 3
-0.0208825 0.0110412 0.0110412 2 3 3
-0.0208702 0.0110233 0.0110233 2 3 3
-0.0208578 0.0110054 0.0110054 2 3 3
-0.0208455 0.0109876 0.0109876 2 3 3
-0.0208332 0.0109698 0.0109698 2 3 3
-0.0208209 0.010952 0.010952 2 3 3
-0.0208086 0.0109342 0.0109342 2 3 3
-0.0207963 0.0109165 0.0109165 2 3 3
-0.0207839 0.0108988 0.0108988 2 3 3
-0.0207716 0.0108811 0.0108811 2 3 3
-0.0207593 0.0108635 0.0108635 2 3 3
-0.020747 0.0108459 0.0108459 2 3 3
-0.0207348 0.0108283 0.0108283 2 3 3
-0.0207225 0.0108108 0.0108108 2 3 3
-0.0207102 0.0107933 0.0107933 2 3 3
-0.0206979 0.0107758 0.0107758 2 3 3
-0.0206856 0.0107584 0.0107584 2 3 3
-0.0206734 0.010741 0.010741 2 3 3
-0.0206611 0.0107236 0.0107236 2 3 3
-0.0206488 0.0107062 0.0107062 2 3 3
-0.0206366 0.0106889 0.0106889 2 3 3
-0.0206243 0.0106716 0.0106716 2 3 3
-0.0206121 0.0106544 0.0106544 2 3 3
-0.0205998 0.0106372 0.0106372 2 3 3
-0.0205876 0.01062 0.01062 2 3 3
-0.0205753 0.0106028 0.0106028 2 3 3
-0.0205631 0.0105857 0.0105857 2 3 3
-0.0205509 0.0105686 0.0105686 2 3 3
-0.0205386 0.0105515 0.0105515 2 3 3
-0.0205264 0.0105345 0.0105345 2 3 3
-0.0205142 0.0105175 0.0105175 2 3 3
-0.020502 0.0105005 0.0105005 2 3 3
-0.0204898 0.0104835 0.0104835 2 3 3
-0.0204776 0.0104666 0.0104666 2 3 3
-0.0204654 0.0104497 0.0104497 2 3 3
-0.0204532 0.0104329 0.0104329 2 3 3
-0.020441 0.010416 0.010416 2 3 3
-0.0204288 0.0103992 0.0103992 2 3 3
-0.0204166 0.0103825 0.0103825 2 3 3
-0.0204044 0.0103657 0.0103657 2 3 3
-0.0203922 0.010349 0.010349 2 3 3
-0.0203801 0.0103324 0.0103324 2 3 3
-0.0203679 0.0103157 0.0103157 2 3 3
-0.0203558 0.0102991 0.0102991 2 3 3
-0.0203436 0.0102825 0.0102825 2 3 3
-0.0203314 0.010266 0.010266 2 3 3
-0.0203193 0.0102494 0.0102494 2 3 3
-0.0203072 0.0102329 0.0102329 2 3 3
-0.020295 0.0102165 0.0102165 2 3 3
-0.0202829 0.0102 0.0102 2 3 3
-0.0202708 0.0101836 0.0101836 2 3 3
-0.0202586 0.0101672 0.0101672 2 3 3
-0.0202465 0.0101509 0.0101509 2 3 3
-0.0202344 0.0101346 0.0101346 2 3 3
-0.0202223 0.0101183 0.0101183 2 3 3
-0.0202102 0.010102 0.010102 2 3 3
-0.0201981 0.0100858 0.0100858 2 3 3
-0.020186 0.0100696 0.0100696 2 3 3
-0.0201739 0.0100534 0.0100534 2 3 3
-0.0201618 0.0100373 0.0100373 2 3 3
-0.0201498 0.0100211 0.0100211 2 3 3
-0.0201377 0.0100051 0.0100051 2 3 3
-0.0201256 0.009989 0.009989 2 3 3
-0.0201136 0.00997297 0.00997297 2 3 3
-0.0201015 0.00995697 0.00995697 2 3 3
-0.0200895 0.009941 0.009941 2 3 3
-0.0200774 0.00992506 0.00992506 2 3 3
-0.0200654 0.00990914 0.00990914 2 3 3
-0.0200533 0.00989325 0.00989325 2 3 3
-0.0200413 0.00987739 0.00987739 2 3 3
-0.0200293 0.00986157 0.00986157 2 3 3
-0.0200173 0.00984576 0.00984576 2 3 3
-0.0200052 0.00982999 0.00982999 2 3 3
-0.0199932 0.00981425 0.00981425 2 3 3
-0.0199812 0.00979853 0.00979853 2 3 3
-0.0199692 0.00978284 0.00978284 2 3 3
-0.0199572 0.00976718 0.00976718 2 3 3
-0.0199453 0.00975155 0.00975155 2 3 3
-0.0199333 0.00973594 0.00973594 2 3 3
-0.0199213 0.00972037 0.00972037 2 3 3
-0.0199093 0.00970482 0.00970482 2 3 3
-0.0198974 0.0096893 0.0096893 2 3 3
-0.0198854 0.00967381 0.00967381 2 3 3
-0.0198735 0.00965834 0.00965834 2 3 3
-0.0198615 0.0096429 0.0096429 2 3 3
-0.0198496 0.0096275 0.0096275 2 3 3
-0.0198376 0.00961211 0.00961211 2 3 3
-0.0198257 0.00959676 0.00959676 2 3 3
-0.0198138 0.00958143 0.00958143 2 3 3
-0.0198019 0.00956613 0.00956613 2 3 3
-0.0197899 0.00955086 0.00955086 2 3 3
-0.019778 0.00953562 0.00953562 2 3 3
-0.0197661 0.0095204 0.0095204 2 3 3
-0.0197542 0.00950521 0.00950521 2 3 3
-0.0197423 0.00949005 0.00949005 2 3 3
-0.0197305 0.00947491 0.00947491 2 3 3
-0.0197186 0.0094598 0.0094598 2 3 3
-0.0197067 0.00944472 0.00944472 2 3 3
-0.0196948 0.00942967 0.00942967 2 3 3
-0.019683 0.00941464 0.00941464 2 3 3
-0.0196711 0.00939964 0.00939964 2 3 3
-0.0196593 0.00938467 0.00938467 2 3 3
-0.0196474 0.00936972 0.00936972 2 3 3
-0.0196356 0.0093548 0.0093548 2 3 3
-0.0196238 0.00933991 0.00933991 2 3 3
-0.0196119 0.00932504 0.00932504 2 3 3
-0.0196001 0.0093102 0.0093102 2 3 3
-0.0195883 0.00929539 0.00929539 2 3 3
-0.0195765 0.0092806 0.0092806 2 3 3
-0.0195647 0.00926584 0.00926584 2 3 3
-0.0195529 0.00925111 0.00925111 2 3 3
-0.0195411 0.0092364 0.0092364 2 3 3
-0.0195293 0.00922172 0.00922172 2 3 3
-0.0195176 0.00920706 0.00920706 2 3 3
-0.0195058 0.00919244 0.00919244 2 3 3
-0.019494 0.00917783 0.00917783 2 3 3
-0.0194823 0.00916326 0.00916326 2 3 3
-0.0194705 0.00914871 0.00914871 2 3 3
-0.0194588 0.00913418 0.00913418 2 3 3
-0.019447 0.00911968 0.00911968 2 3 3
-0.0194353 0.00910521 0.00910521 2 3 3
0.0909396 0.02 0.02 2 3 3
0.0909515 0.0199633 0.0199633 2 3 3
0.0909635 0.0199265 0.0199265 2 3 3
0.0909874 0.0198531 0.0198531 2 3 3
0.0910349 0.019706 0.019706 2 3 3
0.0910939 0.0195221 0.0195221 2 3 3
0.0911521 0.0193379 0.0193379 2 3 3
0.0912098 0.0191534 0.0191534 2 3 3
0.0912669 0.0189688 0.0189688 2 3 3
0.0913234 0.018784 0.018784 2 3 3
0.0913794 0.018599 0.018599 2 3 3
0.0914349 0.0184138 0.0184138 2 3 3
0.0914898 0.0182285 0.0182285 2 3 3
0.0915442 0.0180429 0.0180429 2 3 3
0.091598 0.0178572 0.0178572 2 3 3
0.0916513 0.0176713 0.0176713 2 3 3
0.091704 0.0174852 0.0174852 2 3 3
0.0917561 0.0172989 0.0172989 2 3 3
0.0918078 0.0171125 0.0171125 2 3 3
0.0918588 0.0169258 0.0169258 2 3 3
0.0919093 0.0167391 0.0167391 2 3 3
0.0919593 0.0165521 0.0165521 2 3 3
0.0920087 0.016365 0.016365 2 3 3
0.0920575 0.0161777 0.0161777 2 3 3
0.0921058 0.0159902 0.0159902 2 3 3
0.0921535 0.0158026 0.0158026 2 3 3
0.0922007 0.0156149 0.0156149 2 3 3
0.0922473 0.0154269 0.0154269 2 3 3
0.0922933 0.0152388 0.0152388 2 3 3
0.0923388 0.0150506 0.0150506 2 3 3
0.0923837 0.0148622 0.0148622 2 3 3
0.0924281 0.0146737 0.0146737 2 3 3
0.0924719 0.014485 0.014485 2 3 3
0.0925151 0.0142961 0.0142961 2 3 3
0.0925578 0.0141071 0.0141071 2 3 3
0.0925999 0.013918 0.013918 2 3 3
0.0926414 0.0137287 0.0137287 2 3 3
0.0926824 0.0135393 0.0135393 2 3 3
0.0927228 0.0133497 0.0133497 2 3 3
0.0927626 0.0131601 0.0131601 2 3 3
0.0928018 0.0129702 0.0129702 2 3 3
0.0928405 0.0127803 0.0127803 2 3 3
0.0928786 0.0125902 0.0125902 2 3 3
0.0929162 0.0124 0.0124 2 3 3
0.0929532 0.0122096 0.0122096 2 3 3
0.0929896 0.0120192 0.0120192 2 3 3
0.0930254 0.0118286 0.0118286 2 3 3
0.0930607 0.0116378 0.0116378 2 3 3
0.0930953 0.011447 0.011447 2 3 3
0.0931294 0.0112561 0.0112561 2 3 3
0.093163 0.011065 0.011065 2 3 3
0.0931959 0.0108738 0.0108738 2 3 3
0.0932283 0.0106825 0.0106825 2 3 3
0.0932601 0.0104911 0.0104911 2 3 3
0.0932913 0.0102996 0.0102996 2 3 3
0.093322 0.010108 0.010108 2 3 3
0.093352 0.00991623 0.00991623 2 3 3
0.0933815 0.00972441 0.00972441 2 3 3
0.0934104 0.00953247 0.00953247 2 3 3
0.0934388 0.00934045 0.00934045 2 3 3
0.0934665 0.00914832 0.00914832 2 3 3
0.0934937 0.0089561 0.0089561 2 3 3
0.0935202 0.00876378 0.00876378 2 3 3
0.0935462 0.00857138 0.00857138 2 3 3
0.0935717 0.00837888 0.00837888 2 3 3
0.0935965 0.0081863 0.0081863 2 3 3
0.0936207 0.00799363 0.00799363 2 3 3
0.0936444 0.00780087 0.00780087 2 3 3
0.0936675 0.00760804 0.00760804 2 3 3
0.09369 0.00741513 0.00741513 2 3 3
0.0937119 0.00722213 0.00722213 2 3 3
0.0937332 0.00702907 0.00702907 2 3 3
0.093754 0.00683592 0.00683592 2 3 3
0.0937741 0.00664271 0.00664271 2 3 3
0.0937937 0.00644943 0.00644943 2 3 3
0.0938127 0.00625608 0.00625608 2 3 3
0.0938311 0.00606266 0.00606266 2 3 3
0.0938489 0.00586918 0.00586918 2 3 3
0.0938661 0.00567563 0.00567563 2 3 3
0.0938827 0.00548203 0.00548203 2 3 3
0.0938988 0.00528836 0.00528836 2 3 3
0.0939142 0.00509465 0.00509465 2 3 3
0.0939291 0.00490087 0.00490087 2 3 3
0.0939433 0.00470705 0.00470705 2 3 3
0.093957 0.00451317 0.00451317 2 3 3
0.0939701 0.00431925 0.00431925 2 3 3
0.0939826 0.00412528 0.00412528 2 3 3
0.0939945 0.00393126 0.00393126 2 3 3
0.0940059 0.0037372 0.0037372 2 3 3
0.0940166 0.00354311 0.00354311 2 3 3
0.0940267 0.00334897 0.00334897 2 3 3
0.0940363 0.0031548 0.0031548 2 3 3
0.0940453 0.00296059 0.00296059 2 3 3
0.0940536 0.00276635 0.00276635 2 3 3
0.0940614 0.00257208 0.00257208 2 3 3
0.0940686 0.00237778 0.00237778 2 3 3
0.0940752 0.00218346 0.00218346 2 3 3
0.0940812 0.00198911 0.00198911 2 3 3
0.0940866 0.00179474 0.00179474 2 3 3
0.0940914 0.00160034 0.00160034 2 3 3
0.0940956 0.00140593 0.00140593 2 3 3
0.0940993 0.00121151 0.00121151 2 3 3
0.0941023 0.00101707 0.00101707 2 3 3
0.0941048 0.000822611 0.000822611 2 3 3
0.0941066 0.000628147 0.000628147 2 3 3
0.0941079 0.000433674 0.000433674 2 3 3
0.0941085 0.000239195 0.000239195 2 3 3
0.0941086 4.47114e-05 4.47114e-05 2 3 3
0.0941081 -0.000149775 -0.000149775 2 3 3
0.094107 -0.000344261 -0.000344261 2 3 3
0.0941053 -0.000538745 -0.000538745 2 3 3
0.094103 -0.000733226 -0.000733226 2 3 3
0.0941001 -0.000927701 -0.000927701 2 3 3
0.0940967 -0.00112217 -0.00112217 2 3 3
0.0940926 -0.00131663 -0.00131663 2 3 3
0.0940879 -0.00151107 -0.00151107 2 3 3
0.0940827 -0.0017055 -0.0017055 2 3 3
0.0940768 -0.00189992 -0.00189992 2 3 3
0.0940704 -0.00209432 -0.00209432 2 3 3
0.0940634 -0.0022887 -0.0022887 2 3 3
0.0940558 -0.00248305 -0.00248305 2 3 3
0.0940475 -0.00267739 -0.00267739 2 3 3
0.0940387 -0.00287169 -0.00287169 2 3 3
0.0940293 -0.00306597 -0.00306597 2 3 3
0.0940194 -0.00326022 -0.00326022 2 3 3
0.0940088 -0.00345444 -0.00345444 2 3 3
0.0939976 -0.00364862 -0.00364862 2 3 3
0.0939859 -0.00384277 -0.00384277 2 3 3
0.0939735 -0.00403687 -0.00403687 2 3 3
0.0939606 -0.00423094 -0.00423094 2 3 3
0.0939471 -0.00442497 -0.00442497 2 3 3
0.0939329 -0.00461895 -0.00461895 2 3 3
0.0939182 -0.00481289 -0.00481289 2 3 3
0.093903 -0.00500677 -0.00500677 2 3 3
0.0938871 -0.00520061 -0.00520061 2 3 3
0.0938706 -0.0053944 -0.0053944 2 3 3
0.0938535 -0.00558813 -0.00558813 2 3 3
0.0938359 -0.0057818 -0.0057818 2 3 3
0.0938177 -0.00597542 -0.00597542 2 3 3
0.0937988 -0.00616897 -0.00616897 2 3 3
0.0937794 -0.00636247 -0.00636247 2 3 3
0.0937594 -0.0065559 -0.0065559 2 3 3
0.0937389 -0.00674926 -0.00674926 2 3 3
0.0937177 -0.00694255 -0.00694255 2 3 3
0.093696 -0.00713578 -0.00713578 2 3 3
0.0936736 -0.00732893 -0.00732893 2 3 3
0.0936507 -0.007522 -0.007522 2 3 3
0.0936272 -0.007715 -0.007715 2 3 3
0.0936031 -0.00790793 -0.00790793 2 3 3
0.0935784 -0.00810077 -0.00810077 2 3 3
0.0935532 -0.00829353 -0.00829353 2 3 3
0.0935274 -0.0084862 -0.0084862 2 3 3
0.0935009 -0.00867879 -0.00867879 2 3 3
0.093474 -0.00887129 -0.00887129 2 3 3
0.0934464 -0.00906369 -0.00906369 2 3 3
0.0934182 -0.00925601 -0.00925601 2 3 3
0.0933895 -0.00944823 -0.00944823 2 3 3
0.0933602 -0.00964036 -0.00964036 2 3 3
0.0933303 -0.00983238 -0.00983238 2 3 3
0.0932998 -0.0100243 -0.0100243 2 3 3
0.0932687 -0.0102161 -0.0102161 2 3 3
0.0932371 -0.0104079 -0.0104079 2 3 3
0.0932049 -0.0105995 -0.0105995 2 3 3
0.0931721 -0.010791 -0.010791 2 3 3
0.0931388 -0.0109824 -0.0109824 2 3 3
0.0931049 -0.0111736 -0.0111736 2 3 3
0.0930704 -0.0113648 -0.0113648 2 3 3
0.0930353 -0.0115559 -0.0115559 2 3 3
0.0929996 -0.0117468 -0.0117468 2 3 3
0.0929634 -0.0119376 -0.0119376 2 3 3
0.0929266 -0.0121283 -0.0121283 2 3 3
0.0928893 -0.0123188 -0.0123188 2 3 3
0.0928513 -0.0125093 -0.0125093 2 3 3
0.0928128 -0.0126996 -0.0126996 2 3 3
0.0927738 -0.0128898 -0.0128898 2 3 3
0.0927341 -0.0130798 -0.0130798 2 3 3
0.0926939 -0.0132697 -0.0132697 2 3 3
0.0926532 -0.0134595 -0.0134595 2 3 3
0.0926118 -0.0136491 -0.0136491 2 3 3
0.0925699 -0.0138386 -0.0138386 2 3 3
0.0925275 -0.014028 -0.014028 2 3 3
0.0924845 -0.0142172 -0.0142172 2 3 3
0.0924409 -0.0144063 -0.0144063 2 3 3
0.0923967 -0.0145952 -0.0145952 2 3 3
0.092352 -0.014784 -0.014784 2 3 3
0.0923067 -0.0149726 -0.0149726 2 3 3
0.0922609 -0.0151611 -0.0151611 2 3 3
0.0922145 -0.0153494 -0.0153494 2 3 3
0.0921676 -0.0155375 -0.0155375 2 3 3
0.0921201 -0.0157255 -0.0157255 2 3 3
0.092072 -0.0159133 -0.0159133 2 3 3
0.0920234 -0.016101 -0.016101 2 3 3
0.0919743 -0.0162885 -0.0162885 2 3 3
0.0919246 -0.0164758 -0.0164758 2 3 3
0.0918743 -0.016663 -0.016663 2 3 3
0.0918235 -0.01685 -0.01685 2 3 3
0.0917721 -0.0170368 -0.0170368 2 3 3
0.0917202 -0.0172235 -0.0172235 2 3 3
0.0916677 -0.0174099 -0.0174099 2 3 3
0.0916147 -0.0175962 -0.0175962 2 3 3
0.0915612 -0.0177823 -0.0177823 2 3 3
0.0915071 -0.0179683 -0.0179683 2 3 3
0.0914524 -0.018154 -0.018154 2 3 3
0.0913972 -0.0183396 -0.0183396 2 3 3
0.0913415 -0.018525 -0.018525 2 3 3
0.0912852 -0.0187101 -0.0187101 2 3 3
0.0912284 -0.0188951 -0.0188951 2 3 3
0.0911711 -0.0190799 -0.0190799 2 3 3
0.0911132 -0.0192645 -0.0192645 2 3 3
0.0910548 -0.0194489 -0.0194489 2 3 3
0.0909958 -0.0196332 -0.0196332 2 3 3
0.0909363 -0.0198172 -0.0198172 2 3 3
0.0908763 -0.020001 -0.020001 2 3 3
0.0908158 -0.0201846 -0.0201846 2 3 3
0.0907547 -0.020368 -0.020368 2 3 3
0.0906931 -0.0205512 -0.0205512 2 3 3
0.0906309 -0.0207341 -0.0207341 2 3 3
0.0905682 -0.0209169 -0.0209169 2 3 3
0.090505 -0.0210995 -0.0210995 2 3 3
0.0904413 -0.0212818 -0.0212818 2 3 3
0.0903771 -0.0214639 -0.0214639 2 3 3
0.0903123 -0.0216458 -0.0216458 2 3 3
0.090247 -0.0218275 -0.0218275 2 3 3
0.0901812 -0.022009 -0.022009 2 3 3
0.0901149 -0.0221902 -0.0221902 2 3 3
0.090048 -0.0223712 -0.0223712 2 3 3
0.0899807 -0.022552 -0.022552 2 3 3
0.0899128 -0.0227325 -0.0227325 2 3 3
0.0898444 -0.0229129 -0.0229129 2 3 3
0.0897755 -0.023093 -0.023093 2 3 3
0.0897061 -0.0232728 -0.0232728 2 3 3
0.0896361 -0.0234524 -0.0234524 2 3 3
0.0895657 -0.0236318 -0.0236318 2 3 3
0.0894948 -0.023811 -0.023811 2 3 3
0.0894233 -0.0239899 -0.0239899 2 3 3
0.0893513 -0.0241685 -0.0241685 2 3 3
0.0892789 -0.0243469 -0.0243469 2 3 3
0.0892059 -0.0245251 -0.0245251 2 3 3
0.0891325 -0.024703 -0.024703 2 3 3
0.0890585 -0.0248807 -0.0248807 2 3 3
0.0889841 -0.0250581 -0.0250581 2 3 3
0.0889091 -0.0252353 -0.0252353 2 3 3
0.0888336 -0.0254122 -0.0254122 2 3 3
0.0887577 -0.0255888 -0.0255888 2 3 3
0.0886813 -0.0257652 -0.0257652 2 3 3
0.0886043 -0.0259414 -0.0259414 2 3 3
0.0885269 -0.0261173 -0.0261173 2 3 3
0.088449 -0.0262929 -0.0262929 2 3 3
0.0883706 -0.0264682 -0.0264682 2 3 3
0.0882917 -0.0266433 -0.0266433 2 3 3
0.0882124 -0.0268181 -0.0268181 2 3 3
0.0881325 -0.0269927 -0.0269927 2 3 3
0.0880522 -0.0271669 -0.0271669 2 3 3
0.0879714 -0.0273409 -0.0273409 2 3 3
0.0878901 -0.0275147 -0.0275147 2 3 3
0.0878084 -0.0276881 -0.0276881 2 3 3
0.0877262 -0.0278613 -0.0278613 2 3 3
0.0876434 -0.0280342 -0.0280342 2 3 3
0.0875603 -0.0282068 -0.0282068 2 3 3
0.0874766 -0.0283791 -0.0283791 2 3 3
0.0873925 -0.0285512 -0.0285512 2 3 3
0.0873079 -0.028723 -0.028723 2 3 3
0.0872229 -0.0288944 -0.0288944 2 3 3
0.0871374 -0.0290656 -0.0290656 2 3 3
0.0870514 -0.0292365 -0.0292365 2 3 3
0.086965 -0.0294071 -0.0294071 2 3 3
0.0868781 -0.0295775 -0.0295775 2 3 3
0.0867907 -0.0297475 -0.0297475 2 3 3
0.0867029 -0.0299172 -0.0299172 2 3 3
0.0866146 -0.0300867 -0.0300867 2 3 3
0.0865259 -0.0302558 -0.0302558 2 3 3
0.0864368 -0.0304246 -0.0304246 2 3 3
0.0863472 -0.0305932 -0.0305932 2 3 3
0.0862571 -0.0307614 -0.0307614 2 3 3
0.0861666 -0.0309293 -0.0309293 2 3 3
0.0860756 -0.0310969 -0.0310969 2 3 3
0.0859842 -0.0312643 -0.0312643 2 3 3
0.0858924 -0.0314313 -0.0314313 2 3 3
0.0858001 -0.031598 -0.031598 2 3 3
0.0857074 -0.0317643 -0.0317643 2 3 3
0.0856143 -0.0319304 -0.0319304 2 3 3
0.0855207 -0.0320962 -0.0320962 2 3 3
0.0854267 -0.0322616 -0.0322616 2 3 3
0.0853322 -0.0324267 -0.0324267 2 3 3
0.0852373 -0.0325916 -0.0325916 2 3 3
0.085142 -0.032756 -0.032756 2 3 3
0.0850463 -0.0329202 -0.0329202 2 3 3
0.0849501 -0.0330841 -0.0330841 2 3 3
0.0848536 -0.0332476 -0.0332476 2 3 3
0.0847566 -0.0334108 -0.0334108 2 3 3
0.0846592 -0.0335737 -0.0335737 2 3 3
0.0845613 -0.0337362 -0.0337362 2 3 3
0.0844631 -0.0338984 -0.0338984 2 3 3
0.0843644 -0.0340603 -0.0340603 2 3 3
0.0842653 -0.0342219 -0.0342219 2 3 3
0.0841659 -0.0343831 -0.0343831 2 3 3
0.084066 -0.034544 -0.034544 2 3 3
0.0839657 -0.0347045 -0.0347045 2 3 3
0.083865 -0.0348647 -0.0348647 2 3 3
0.0837639 -0.0350246 -0.0350246 2 3 3
0.0836624 -0.0351842 -0.0351842 2 3 3
0.0835605 -0.0353434 -0.0353434 2 3 3
0.0834582 -0.0355022 -0.0355022 2 3 3
0.0833555 -0.0356608 -0.0356608 2 3 3
0.0832524 -0.0358189 -0.0358189 2 3 3
0.0831489 -0.0359768 -0.0359768 2 3 3
0.083045 -0.0361343 -0.0361343 2 3 3
0.0829408 -0.0362914 -0.0362914 2 3 3
0.0828361 -0.0364482 -0.0364482 2 3 3
0.0827311 -0.0366046 -0.0366046 2 3 3
0.0826257 -0.0367607 -0.0367607 2 3 3
0.0825199 -0.0369165 -0.0369165 2 3 3
0.0824137 -0.0370718 -0.0370718 2 3 3
0.0823072 -0.0372269 -0.0372269 2 3 3
0.0822003 -0.0373816 -0.0373816 2 3 3
0.082093 -0.0375359 -0.0375359 2 3 3
0.0819853 -0.0376898 -0.0376898 2 3 3
0.0818773 -0.0378435 -0.0378435 2 3 3
0.0817689 -0.0379967 -0.0379967 2 3 3
0.0816601 -0.0381496 -0.0381496 2 3 3
0.081551 -0.0383021 -0.0383021 2 3 3
0.0814415 -0.0384543 -0.0384543 2 3 3
0.0813316 -0.0386061 -0.0386061 2 3 3
0.0812214 -0.0387575 -0.0387575 2 3 3
0.0811109 -0.0389086 -0.0389086 2 3 3
0.081 -0.0390593 -0.0390593 2 3 3
0.0808887 -0.0392096 -0.0392096 2 3 3
0.0807771 -0.0393596 -0.0393596 2 3 3
0.0806651 -0.0395092 -0.0395092 2 3 3
0.0805528 -0.0396584 -0.0396584 2 3 3
0.0804402 -0.0398073 -0.0398073 2 3 3
0.0803272 -0.0399558 -0.0399558 2 3 3
0.0802138 -0.0401039 -0.0401039 2 3 3
0.0801001 -0.0402516 -0.0402516 2 3 3
0.0799861 -0.040399 -0.040399 2 3 3
0.0798718 -0.040546 -0.040546 2 3 3
0.0797571 -0.0406926 -0.0406926 2 3 3
0.0796421 -0.0408389 -0.0408389 2 3 3
0.0795268 -0.0409847 -0.0409847 2 3 3
0.0794111 -0.0411302 -0.0411302 2 3 3
0.0792951 -0.0412753 -0.0412753 2 3 3
0.0791788 -0.04142 -0.04142 2 3 3
0.0790622 -0.0415643 -0.0415643 2 3 3
0.0789453 -0.0417083 -0.0417083 2 3 3
0.078828 -0.0418519 -0.0418519 2 3 3
0.0787104 -0.041995 -0.041995 2 3 3
0.0785925 -0.0421378 -0.0421378 2 3 3
0.0784743 -0.0422803 -0.0422803 2 3 3
0.0783558 -0.0424223 -0.0424223 2 3 3
0.078237 -0.0425639 -0.0425639 2 3 3
0.0781179 -0.0427052 -0.0427052 2 3 3
0.0779985 -0.042846 -0.042846 2 3 3
0.0778788 -0.0429865 -0.0429865 2 3 3
0.0777588 -0.0431266 -0.0431266 2 3 3
0.0776385 -0.0432663 -0.0432663 2 3 3
0.0775179 -0.0434056 -0.0434056 2 3 3
0.077397 -0.0435445 -0.0435445 2 3 3
0.0772758 -0.043683 -0.043683 2 3 3
0.0771543 -0.0438211 -0.0438211 2 3 3
0.0770326 -0.0439588 -0.0439588 2 3 3
0.0769105 -0.0440962 -0.0440962 2 3 3
0.0767882 -0.0442331 -0.0442331 2 3 3
0.0766656 -0.0443696 -0.0443696 2 3 3
0.0765427 -0.0445058 -0.0445058 2 3 3
0.0764196 -0.0446415 -0.0446415 2 3 3
0.0762961 -0.0447768 -0.0447768 2 3 3
0.0761724 -0.0449118 -0.0449118 2 3 3
0.0760485 -0.0450463 -0.0450463 2 3 3
0.0759242 -0.0451805 -0.0451805 2 3 3
0.0757997 -0.0453142 -0.0453142 2 3 3
0.075675 -0.0454475 -0.0454475 2 3 3
0.0755499 -0.0455805 -0.0455805 2 3 3
