0.0748305 0.135625 0.050622 3 4 0
0.0748367 0.135646 0.0506271 3 4 0
0.0748437 0.135666 0.0506313 3 4 0
0.0748514 0.135686 0.050637 3 4 0
0.0748598 0.135707 0.0506429 3 4 0
0.0748691 0.135727 0.0506503 3 4 0
0.0748792 0.135748 0.0506574 3 4 0
0.0748903 0.13577 0.0506655 3 4 0
0.0749023 0.135792 0.0506739 3 4 0
0.0749153 0.135814 0.0506843 3 4 0
0.0749294 0.135837 0.0506945 3 4 0
0.0749446 0.13586 0.0507047 3 4 0
0.0749609 0.135885 0.050717 3 4 0
0.0749784 0.135909 0.0507302 3 4 0
0.0749972 0.135935 0.0507431 3 4 0
0.0750172 0.135961 0.0507579 3 4 0
0.0750385 0.135989 0.0507734 3 4 0
0.0750611 0.136017 0.0507898 3 4 0
0.0750851 0.136046 0.0508073 3 4 0
0.0751104 0.136076 0.050826 3 4 0
0.0751372 0.136107 0.0508453 3 4 0
0.0751654 0.136139 0.0508659 3 4 0
0.075195 0.136172 0.0508881 3 4 0
0.0752261 0.136206 0.0509101 3 4 0
0.0752586 0.136242 0.0509342 3 4 0
0.0752927 0.136278 0.0509593 3 4 0
0.0753282 0.136315 0.0509847 3 4 0
0.0753652 0.136354 0.0510122 3 4 0
0.0754038 0.136394 0.0510404 3 4 0
0.0754438 0.136435 0.0510692 3 4 0
0.0754854 0.136477 0.0511 3 4 0
0.0755285 0.13652 0.0511315 3 4 0
0.075573 0.136564 0.0511637 3 4 0
0.0756191 0.13661 0.0511979 3 4 0
0.0756667 0.136657 0.0512328 3 4 0
0.0757158 0.136705 0.0512682 3 4 0
0.0757664 0.136754 0.0513055 3 4 0
0.0758184 0.136804 0.0513438 3 4 0
0.075872 0.136856 0.0513827 3 4 0
0.075927 0.136908 0.0514234 3 4 0
0.0759835 0.136962 0.0514646 3 4 0
0.0760414 0.137017 0.0515069 3 4 0
0.0761008 0.137073 0.0515509 3 4 0
0.0761616 0.137131 0.0515954 3 4 0
0.0762238 0.137189 0.0516408 3 4 0
0.0762874 0.137249 0.0516879 3 4 0
0.0763525 0.137309 0.0517355 3 4 0
0.0764189 0.137371 0.0517842 3 4 0
0.0764867 0.137434 0.0518344 3 4 0
0.0765558 0.137498 0.0518851 3 4 0
0.0766263 0.137563 0.0519368 3 4 0
0.0766982 0.137629 0.05199 3 4 0
0.0767714 0.137697 0.0520438 3 4 0
0.0768458 0.137765 0.0520985 3 4 0
0.0769216 0.137834 0.0521546 3 4 0
0.0769987 0.137905 0.0522113 3 4 0
0.077077 0.137977 0.052269 3 4 0
0.0771566 0.138049 0.052328 3 4 0
0.0772375 0.138123 0.0523874 3 4 0
0.0773196 0.138197 0.0524482 3 4 0
0.0774029 0.138273 0.0525099 3 4 0
0.0774875 0.138349 0.0525722 3 4 0
0.0775732 0.138427 0.0526356 3 4 0
0.0776601 0.138506 0.0527001 3 4 0
0.0777482 0.138585 0.0527652 3 4 0
0.0778375 0.138666 0.0528312 3 4 0
0.0779279 0.138747 0.0528985 3 4 0
0.0780195 0.138829 0.0529662 3 4 0
0.0781122 0.138913 0.0530348 3 4 0
0.078206 0.138997 0.0531047 3 4 0
0.0783009 0.139082 0.0531749 3 4 0
0.0783969 0.139168 0.0532463 3 4 0
0.078494 0.139255 0.0533186 3 4 0
0.0785922 0.139343 0.0533914 3 4 0
0.0786914 0.139431 0.0534654 3 4 0
0.0787917 0.139521 0.0535398 3 4 0
0.078893 0.139612 0.0536153 3 4 0
0.0789953 0.139703 0.0536915 3 4 0
0.0790987 0.139795 0.0537684 3 4 0
0.0792031 0.139888 0.0538463 3 4 0
0.0793085 0.139982 0.0539251 3 4 0
0.0794149 0.140077 0.0540043 3 4 0
0.0795222 0.140172 0.0540845 3 4 0
0.0796305 0.140268 0.0541655 3 4 0
0.0797398 0.140365 0.054247 3 4 0
0.0798501 0.140463 0.0543296 3 4 0
0.0799612 0.140561 0.0544127 3 4 0
0.0800734 0.140661 0.0544965 3 4 0
0.0801864 0.140761 0.0545813 3 4 0
0.0803003 0.140862 0.0546665 3 4 0
0.0804152 0.140964 0.0547526 3 4 0
0.0805309 0.141066 0.0548395 3 4 0
0.0806476 0.141169 0.054927 3 4 0
0.0807651 0.141273 0.0550151 3 4 0
0.0808835 0.141378 0.0551041 3 4 0
0.0810027 0.141483 0.0551938 3 4 0
0.0811228 0.141589 0.0552839 3 4 0
0.0812438 0.141696 0.0553749 3 4 0
0.0813656 0.141803 0.0554668 3 4 0
0.0814882 0.141911 0.0555589 3 4 0
0.0816117 0.14202 0.0556519 3 4 0
0.0817359 0.14213 0.0557457 3 4 0
0.081861 0.14224 0.0558398 3 4 0
0.0819868 0.142351 0.0559347 3 4 0
0.0821135 0.142462 0.0560303 3 4 0
0.082241 0.142574 0.0561266 3 4 0
0.0823692 0.142687 0.0562235 3 4 0
0.0824982 0.1428 0.0563209 3 4 0
0.0826279 0.142914 0.0564191 3 4 0
0.0827584 0.143029 0.0565178 3 4 0
0.0828897 0.143144 0.0566171 3 4 0
0.0830217 0.14326 0.0567171 3 4 0
0.0831545 0.143376 0.0568178 3 4 0
0.0832879 0.143494 0.0569189 3 4 0
0.0834221 0.143611 0.0570207 3 4 0
0.0835571 0.143729 0.0571231 3 4 0
0.0836927 0.143848 0.0572262 3 4 0
0.083829 0.143967 0.0573297 3 4 0
0.083966 0.144088 0.0574338 3 4 0
0.0841038 0.144209 0.0575386 3 4 0
0.0842422 0.14433 0.0576437 3 4 0
0.0843813 0.144451 0.0577495 3 4 0
0.084521 0.144574 0.057856 3 4 0
0.0846615 0.144696 0.0579631 3 4 0
0.0848026 0.14482 0.0580705 3 4 0
0.0849443 0.144944 0.0581786 3 4 0
0.0850867 0.145068 0.0582874 3 4 0
0.0852298 0.145194 0.0583964 3 4 0
0.0853735 0.145319 0.0585061 3 4 0
0.0855178 0.145445 0.0586163 3 4 0
0.0856627 0.145572 0.0587272 3 4 0
0.0858083 0.145699 0.0588386 3 4 0
0.0859545 0.145826 0.0589504 3 4 0
0.0861013 0.145955 0.0590626 3 4 0
0.0862488 0.146083 0.0591756 3 4 0
0.0863968 0.146212 0.059289 3 4 0
0.0865454 0.146342 0.0594028 3 4 0
0.0866946 0.146472 0.0595173 3 4 0
0.0868445 0.146603 0.0596323 3 4 0
0.0869949 0.146734 0.0597477 3 4 0
0.0871458 0.146866 0.0598637 3 4 0
0.0872974 0.146998 0.0599802 3 4 0
0.0874495 0.14713 0.0600969 3 4 0
0.0876022 0.147263 0.0602143 3 4 0
0.0877554 0.147397 0.0603322 3 4 0
0.0879092 0.147531 0.0604506 3 4 0
0.0880636 0.147665 0.0605694 3 4 0
0.0882185 0.1478 0.0606887 3 4 0
0.088374 0.147935 0.0608086 3 4 0
0.08853 0.148071 0.060929 3 4 0
0.0886865 0.148207 0.0610498 3 4 0
0.0888435 0.148344 0.0611707 3 4 0
0.0890011 0.148481 0.0612924 3 4 0
0.0891592 0.148619 0.0614145 3 4 0
0.0893179 0.148756 0.0615372 3 4 0
0.089477 0.148895 0.0616602 3 4 0
0.0896367 0.149034 0.0617837 3 4 0
0.0897968 0.149173 0.0619077 3 4 0
0.0899575 0.149313 0.062032 3 4 0
0.0901186 0.149453 0.0621568 3 4 0
0.0902803 0.149593 0.0622819 3 4 0
0.0904424 0.149734 0.0624076 3 4 0
0.0906051 0.149875 0.0625338 3 4 0
0.0907682 0.150017 0.0626602 3 4 0
0.0909318 0.150159 0.0627872 3 4 0
0.0910959 0.150301 0.0629146 3 4 0
0.0912604 0.150444 0.0630423 3 4 0
0.0914254 0.150588 0.0631705 3 4 0
0.0915909 0.150731 0.0632992 3 4 0
0.0917569 0.150875 0.0634282 3 4 0
0.0919233 0.151019 0.0635577 3 4 0
0.0920901 0.151164 0.0636876 3 4 0
0.0922575 0.15131 0.0638179 3 4 0
0.0924252 0.151455 0.0639485 3 4 0
0.0925934 0.1516 0.0640796 3 4 0
0.0927621 0.151747 0.0642111 3 4 0
0.0929312 0.151893 0.064343 3 4 0
0.0931007 0.152041 0.0644753 3 4 0
0.0932707 0.152188 0.0646079 3 4 0
0.0934411 0.152335 0.064741 3 4 0
0.0936119 0.152484 0.0648744 3 4 0
0.0937831 0.152632 0.0650083 3 4 0
0.0939548 0.152781 0.0651425 3 4 0
0.0941269 0.15293 0.0652771 3 4 0
0.0942994 0.153079 0.0654119 3 4 0
0.0944723 0.153229 0.0655473 3 4 0
0.0946456 0.153379 0.065683 3 4 0
0.0948193 0.15353 0.0658191 3 4 0
0.0949934 0.15368 0.0659555 3 4 0
0.0951679 0.153831 0.0660923 3 4 0
0.0953429 0.153983 0.0662295 3 4 0
0.0955182 0.154135 0.066367 3 4 0
0.0956939 0.154286 0.0665049 3 4 0
0.09587 0.154439 0.0666433 3 4 0
0.0960465 0.154592 0.0667819 3 4 0
0.0962233 0.154745 0.0669208 3 4 0
0.0964006 0.154898 0.0670602 3 4 0
0.0965782 0.155051 0.0671999 3 4 0
0.0967562 0.155206 0.0673399 3 4 0
0.0969345 0.15536 0.0674801 3 4 0
0.0971133 0.155514 0.0676208 3 4 0
0.0972924 0.155669 0.0677618 3 4 0
0.0974719 0.155825 0.0679032 3 4 0
0.0976517 0.15598 0.0680449 3 4 0
0.0978319 0.156136 0.0681869 3 4 0
0.0980124 0.156292 0.0683293 3 4 0
0.0981933 0.156448 0.068472 3 4 0
0.0983746 0.156605 0.068615 3 4 0
0.0985562 0.156762 0.0687584 3 4 0
0.0987381 0.156919 0.0689021 3 4 0
0.0989204 0.157076 0.0690462 3 4 0
0.0991031 0.157234 0.0691904 3 4 0
0.0992861 0.157392 0.0693351 3 4 0
0.0994694 0.15755 0.06948 3 4 0
0.099653 0.157709 0.0696253 3 4 0
0.099837 0.157868 0.069771 3 4 0
0.100021 0.158027 0.0699169 3 4 0
0.100206 0.158186 0.0700631 3 4 0
0.100391 0.158346 0.0702096 3 4 0
0.100576 0.158506 0.0703565 3 4 0
0.100762 0.158666 0.0705036 3 4 0
0.100948 0.158827 0.0706511 3 4 0
0.101134 0.158987 0.0707988 3 4 0
0.101321 0.159149 0.070947 3 4 0
0.101507 0.15931 0.0710953 3 4 0
0.101695 0.159471 0.0712439 3 4 0
0.101882 0.159633 0.071393 3 4 0
0.10207 0.159795 0.0715422 3 4 0
0.102258 0.159957 0.0716917 3 4 0
0.102447 0.16012 0.0718414 3 4 0
0.102635 0.160282 0.0719915 3 4 0
0.102824 0.160445 0.0721419 3 4 0
0.103014 0.160609 0.0722925 3 4 0
0.103203 0.160772 0.0724435 3 4 0
0.103393 0.160936 0.0725948 3 4 0
0.103583 0.1611 0.0727463 3 4 0
0.103774 0.161264 0.0728981 3 4 0
0.103964 0.161428 0.0730501 3 4 0
0.104156 0.161593 0.0732027 3 4 0
0.104347 0.161758 0.0733552 3 4 0
0.104538 0.161923 0.0735081 3 4 0
0.10473 0.162088 0.0736612 3 4 0
0.104923 0.162254 0.0738146 3 4 0
0.105115 0.16242 0.0739683 3 4 0
0.105308 0.162586 0.0741223 3 4 0
0.105501 0.162752 0.0742766 3 4 0
0.105694 0.162918 0.0744311 3 4 0
0.105887 0.163085 0.0745858 3 4 0
0.106081 0.163252 0.0747408 3 4 0
0.106275 0.163419 0.074896 3 4 0
0.10647 0.163586 0.0750517 3 4 0
0.106664 0.163754 0.0752074 3 4 0
0.106859 0.163922 0.0753634 3 4 0
0.107054 0.16409 0.0755198 3 4 0
0.107249 0.164258 0.0756762 3 4 0
0.107445 0.164426 0.075833 3 4 0
0.107641 0.164595 0.07599 3 4 0
0.107837 0.164763 0.0761473 3 4 0
0.108033 0.164932 0.0763048 3 4 0
0.10823 0.165101 0.0764627 3 4 0
0.108427 0.165271 0.0766206 3 4 0
0.108624 0.16544 0.0767789 3 4 0
0.108821 0.16561 0.0769376 3 4 0
0.109019 0.16578 0.0770962 3 4 0
0.109216 0.16595 0.0772551 3 4 0
0.109414 0.16612 0.0774144 3 4 0
0.109613 0.166291 0.0775738 3 4 0
0.109811 0.166462 0.0777334 3 4 0
0.11001 0.166632 0.0778934 3 4 0
0.110209 0.166804 0.0780535 3 4 0
0.110408 0.166975 0.0782137 3 4 0
0.110607 0.167147 0.0783744 3 4 0
0.110807 0.167318 0.0785353 3 4 0
0.111007 0.16749 0.0786962 3 4 0
0.111207 0.167662 0.0788574 3 4 0
0.111407 0.167834 0.079019 3 4 0
0.111608 0.168006 0.0791808 3 4 0
0.111809 0.168179 0.0793425 3 4 0
0.112009 0.168352 0.0795046 3 4 0
0.112211 0.168524 0.0796669 3 4 0
0.112412 0.168697 0.0798296 3 4 0
0.112614 0.16887 0.0799923 3 4 0
0.112815 0.169044 0.0801552 3 4 0
0.113017 0.169217 0.0803185 3 4 0
0.11322 0.169391 0.080482 3 4 0
0.113422 0.169565 0.0806456 3 4 0
0.113625 0.169739 0.0808094 3 4 0
0.113827 0.169913 0.0809735 3 4 0
0.11403 0.170088 0.0811377 3 4 0
0.114234 0.170262 0.0813021 3 4 0
0.114437 0.170437 0.0814666 3 4 0
0.114641 0.170611 0.0816314 3 4 0
0.114844 0.170786 0.0817964 3 4 0
0.115048 0.170961 0.0819617 3 4 0
0.115253 0.171137 0.0821272 3 4 0
0.115457 0.171312 0.082293 3 4 0
0.115661 0.171488 0.0824587 3 4 0
0.115866 0.171663 0.0826246 3 4 0
0.116071 0.17184 0.0827909 3 4 0
0.116276 0.172015 0.0829572 3 4 0
0.116481 0.172191 0.0831237 3 4 0
0.116687 0.172368 0.0832907 3 4 0
0.116893 0.172544 0.0834576 3 4 0
0.117098 0.172721 0.0836246 3 4 0
0.117304 0.172897 0.083792 3 4 0
0.117511 0.173074 0.0839596 3 4 0
0.117717 0.173252 0.0841272 3 4 0
0.117923 0.173429 0.084295 3 4 0
0.11813 0.173606 0.084463 3 4 0
0.118337 0.173783 0.0846313 3 4 0
0.118544 0.173961 0.0847998 3 4 0
0.118751 0.174138 0.0849682 3 4 0
0.118959 0.174316 0.085137 3 4 0
0.119166 0.174494 0.0853059 3 4 0
0.119374 0.174672 0.085475 3 4 0
0.119582 0.17485 0.0856443 3 4 0
0.11979 0.175029 0.0858137 3 4 0
0.119998 0.175207 0.0859833 3 4 0
0.120206 0.175386 0.0861532 3 4 0
0.120415 0.175565 0.0863232 3 4 0
0.120623 0.175743 0.0864933 3 4 0
0.120832 0.175922 0.0866634 3 4 0
0.121041 0.176101 0.0868339 3 4 0
0.12125 0.176281 0.0870046 3 4 0
0.121459 0.17646 0.0871753 3 4 0
0.121669 0.176639 0.0873461 3 4 0
0.121878 0.176818 0.0875173 3 4 0
0.122088 0.176998 0.0876886 3 4 0
0.122298 0.177178 0.0878598 3 4 0
0.122508 0.177358 0.0880313 3 4 0
0.122718 0.177538 0.088203 3 4 0
0.122928 0.177717 0.0883749 3 4 0
0.123138 0.177898 0.0885468 3 4 0
0.123349 0.178078 0.088719 3 4 0
0.123559 0.178258 0.0888913 3 4 0
0.12377 0.178439 0.0890637 3 4 0
0.123981 0.17862 0.0892363 3 4 0
0.124192 0.1788 0.089409 3 4 0
0.124403 0.178981 0.0895819 3 4 0
0.124615 0.179162 0.0897551 3 4 0
0.124826 0.179343 0.089928 3 4 0
0.125038 0.179524 0.0901014 3 4 0
0.125249 0.179705 0.0902749 3 4 0
0.125461 0.179886 0.0904485 3 4 0
0.125673 0.180068 0.0906222 3 4 0
0.125885 0.180249 0.0907959 3 4 0
0.126097 0.180431 0.0909701 3 4 0
0.126309 0.180612 0.0911441 3 4 0
0.126522 0.180794 0.0913182 3 4 0
0.126734 0.180976 0.0914928 3 4 0
0.126947 0.181158 0.0916673 3 4 0
0.12716 0.18134 0.0918418 3 4 0
0.127373 0.181522 0.0920165 3 4 0
0.127586 0.181704 0.0921914 3 4 0
0.127799 0.181886 0.0923666 3 4 0
0.128012 0.182069 0.0925416 3 4 0
0.128225 0.182251 0.0927168 3 4 0
0.128439 0.182434 0.0928923 3 4 0
0.128652 0.182616 0.093068 3 4 0
0.128866 0.182799 0.0932434 3 4 0
0.129079 0.182981 0.0934191 3 4 0
0.129293 0.183164 0.093595 3 4 0
0.129507 0.183347 0.0937712 3 4 0
0.129721 0.18353 0.0939471 3 4 0
0.129935 0.183712 0.0941234 3 4 0
0.130149 0.183896 0.0942998 3 4 0
0.130364 0.184079 0.094476 3 4 0
0.130578 0.184263 0.0946525 3 4 0
0.130792 0.184446 0.0948293 3 4 0
0.131007 0.184629 0.0950061 3 4 0
0.131222 0.184812 0.095183 3 4 0
0.131436 0.184996 0.0953599 3 4 0
0.131651 0.18518 0.0955368 3 4 0
0.131866 0.185363 0.095714 3 4 0
0.132081 0.185547 0.0958913 3 4 0
0.132296 0.18573 0.0960687 3 4 0
0.132511 0.185914 0.0962463 3 4 0
0.132726 0.186098 0.0964239 3 4 0
0.132942 0.186282 0.0966014 3 4 0
0.133157 0.186466 0.0967791 3 4 0
0.133372 0.186649 0.0969571 3 4 0
0.133588 0.186834 0.0971352 3 4 0
0.133804 0.187018 0.097313 3 4 0
0.134019 0.187202 0.0974912 3 4 0
0.134235 0.187386 0.0976695 3 4 0
0.134451 0.18757 0.0978479 3 4 0
0.134667 0.187755 0.0980262 3 4 0
0.134883 0.187939 0.0982046 3 4 0
0.135098 0.188123 0.0983835 3 4 0
0.135315 0.188307 0.0985619 3 4 0
0.135531 0.188492 0.0987406 3 4 0
0.135747 0.188677 0.0989194 3 4 0
0.135963 0.188861 0.0990984 3 4 0
0.136179 0.189045 0.0992776 3 4 0
0.136396 0.189231 0.0994564 3 4 0
0.136612 0.189415 0.0996356 3 4 0
0.136829 0.1896 0.0998149 3 4 0
0.137045 0.189785 0.0999941 3 4 0
0.137262 0.189969 0.100173 3 4 0
0.137478 0.190154 0.100353 3 4 0
0.137695 0.190339 0.100533 3 4 0
0.137912 0.190524 0.100712 3 4 0
0.138128 0.190709 0.100892 3 4 0
0.138345 0.190892 0.101072 3 4 0
0.138562 0.191078 0.101251 3 4 0
0.138779 0.191263 0.101431 3 4 0
0.138996 0.191448 0.101611 3 4 0
0.139213 0.191633 0.101791 3 4 0
0.13943 0.191818 0.101971 3 4 0
0.139647 0.192003 0.102151 3 4 0
0.139864 0.192188 0.102331 3 4 0
0.140081 0.192373 0.102511 3 4 0
0.140298 0.192558 0.102692 3 4 0
0.140515 0.192743 0.102872 3 4 0
0.140732 0.192928 0.103052 3 4 0
0.140949 0.193113 0.103233 3 4 0
0.141167 0.193298 0.103413 3 4 0
0.141384 0.193483 0.103594 3 4 0
0.141601 0.193668 0.103775 3 4 0
0.141818 0.193853 0.103955 3 4 0
0.142036 0.194038 0.104136 3 4 0
0.142253 0.194224 0.104316 3 4 0
0.14247 0.194409 0.104497 3 4 0
0.142688 0.194594 0.104678 3 4 0
0.142905 0.194779 0.104859 3 4 0
0.143123 0.194964 0.105039 3 4 0
0.14334 0.195149 0.10522 3 4 0
0.143557 0.195335 0.105401 3 4 0
0.143775 0.19552 0.105582 3 4 0
0.143992 0.195705 0.105764 3 4 0
0.14421 0.19589 0.105944 3 4 0
0.144427 0.196075 0.106125 3 4 0
0.144644 0.19626 0.106306 3 4 0
0.144862 0.196445 0.106488 3 4 0
0.145079 0.19663 0.106669 3 4 0
0.145297 0.196815 0.10685 3 4 0
0.145514 0.197 0.107031 3 4 0
0.145731 0.197186 0.107212 3 4 0
0.145949 0.19737 0.107394 3 4 0
0.146166 0.197555 0.107575 3 4 0
0.146383 0.19774 0.107756 3 4 0
0.146601 0.197924 0.107937 3 4 0
0.146818 0.19811 0.108119 3 4 0
0.147035 0.198295 0.1083 3 4 0
0.147253 0.19848 0.108481 3 4 0
0.14747 0.198664 0.108663 3 4 0
0.147687 0.198849 0.108844 3 4 0
0.147904 0.199033 0.109025 3 4 0
0.148122 0.199219 0.109207 3 4 0
0.148339 0.199404 0.109388 3 4 0
0.148556 0.199588 0.109569 3 4 0
0.148773 0.199772 0.109751 3 4 0
0.14899 0.199957 0.109932 3 4 0
0.149207 0.200142 0.110114 3 4 0
0.149424 0.200326 0.110295 3 4 0
0.149641 0.200511 0.110476 3 4 0
0.149858 0.200695 0.110658 3 4 0
0.150075 0.200879 0.110839 3 4 0
0.150292 0.201064 0.11102 3 4 0
0.150509 0.201248 0.111202 3 4 0
0.150725 0.201431 0.111383 3 4 0
0.150942 0.201615 0.111565 3 4 0
0.151159 0.201799 0.111746 3 4 0
0.151375 0.201984 0.111927 3 4 0
0.151592 0.202168 0.112108 3 4 0
0.151808 0.202352 0.112289 3 4 0
0.152025 0.202536 0.11247 3 4 0
0.152241 0.20272 0.112651 3 4 0
0.152457 0.202904 0.112833 3 4 0
0.152674 0.203087 0.113014 3 4 0
0.15289 0.20327 0.113195 3 4 0
0.153106 0.203453 0.113376 3 4 0
0.153322 0.203637 0.113557 3 4 0
0.153538 0.203821 0.113738 3 4 0
0.153754 0.204004 0.113919 3 4 0
0.15397 0.204188 0.1141 3 4 0
0.154185 0.204371 0.114281 3 4 0
0.154401 0.204554 0.114462 3 4 0
0.154616 0.204736 0.114642 3 4 0
0.154832 0.204918 0.114823 3 4 0
0.155047 0.205101 0.115004 3 4 0
0.155263 0.205285 0.115184 3 4 0
0.155478 0.205468 0.115365 3 4 0
0.155693 0.20565 0.115545 3 4 0
0.155908 0.205833 0.115726 3 4 0
0.156123 0.206015 0.115906 3 4 0
0.156338 0.206197 0.116086 3 4 0
0.156552 0.206379 0.116267 3 4 0
0.156767 0.206561 0.116447 3 4 0
0.156982 0.206743 0.116627 3 4 0
0.157196 0.206924 0.116807 3 4 0
0.15741 0.207106 0.116987 3 4 0
0.157624 0.207288 0.117167 3 4 0
0.157838 0.20747 0.117347 3 4 0
0.158052 0.207651 0.117527 3 4 0
0.158266 0.207833 0.117706 3 4 0
0.15848 0.208014 0.117886 3 4 0
0.158693 0.208195 0.118065 3 4 0
0.158907 0.208376 0.118245 3 4 0
0.15912 0.208556 0.118424 3 4 0
0.159333 0.208737 0.118604 3 4 0
0.159546 0.208917 0.118783 3 4 0
0.159759 0.209097 0.118962 3 4 0
0.159972 0.209277 0.119141 3 4 0
0.160185 0.209457 0.11932 3 4 0
0.160397 0.209637 0.119498 3 4 0
0.160609 0.209817 0.119677 3 4 0
0.160822 0.209997 0.119856 3 4 0
0.161034 0.210177 0.120034 3 4 0
0.161245 0.210357 0.120212 3 4 0
0.161457 0.210536 0.120391 3 4 0
0.161669 0.210716 0.120569 3 4 0
0.16188 0.210895 0.120747 3 4 0
0.162091 0.211074 0.120925 3 4 0
0.162302 0.211252 0.121102 3 4 0
0.162513 0.211431 0.12128 3 4 0
0.162724 0.211609 0.121458 3 4 0
0.162934 0.211787 0.121635 3 4 0
0.163145 0.211965 0.121813 3 4 0
0.163355 0.212143 0.121989 3 4 0
0.163565 0.21232 0.122166 3 4 0
0.163774 0.212498 0.122343 3 4 0
0.163984 0.212675 0.12252 3 4 0
0.164193 0.212852 0.122697 3 4 0
0.164402 0.213029 0.122873 3 4 0
0.164611 0.213205 0.123049 3 4 0
0.16482 0.213381 0.123225 3 4 0
0.165028 0.213558 0.123401 3 4 0
0.165237 0.213735 0.123577 3 4 0
0.165445 0.213911 0.123752 3 4 0
0.165653 0.214087 0.123928 3 4 0
0.16586 0.214262 0.124103 3 4 0
0.166068 0.214438 0.124278 3 4 0
0.166275 0.214613 0.124453 3 4 0
0.166482 0.214788 0.124628 3 4 0
0.166688 0.214963 0.124803 3 4 0
0.166895 0.215138 0.124977 3 4 0
0.167101 0.215312 0.125151 3 4 0
0.167307 0.215486 0.125325 3 4 0
0.167513 0.21566 0.125499 3 4 0
0.167718 0.215834 0.125672 3 4 0
0.167923 0.216007 0.125846 3 4 0
0.168128 0.21618 0.126019 3 4 0
0.168333 0.216353 0.126192 3 4 0
0.168537 0.216526 0.126365 3 4 0
0.168741 0.216698 0.126537 3 4 0
0.168945 0.21687 0.126709 3 4 0
0.169148 0.217042 0.126881 3 4 0
0.169352 0.217213 0.127054 3 4 0
0.169554 0.217385 0.127225 3 4 0
0.169757 0.217556 0.127396 3 4 0
0.169959 0.217727 0.127567 3 4 0
0.170161 0.217897 0.127739 3 4 0
0.170363 0.218067 0.127909 3 4 0
0.170564 0.218237 0.12808 3 4 0
0.170765 0.218407 0.12825 3 4 0
0.170966 0.218576 0.12842 3 4 0
0.171167 0.218745 0.128589 3 4 0
0.171367 0.218914 0.128759 3 4 0
0.171566 0.219082 0.128928 3 4 0
0.171766 0.219251 0.129097 3 4 0
0.171965 0.219419 0.129265 3 4 0
0.172163 0.219586 0.129433 3 4 0
0.172362 0.219754 0.129601 3 4 0
0.172559 0.219921 0.129769 3 4 0
0.172757 0.220088 0.129936 3 4 0
0.172954 0.220254 0.130104 3 4 0
0.173151 0.22042 0.13027 3 4 0
0.173347 0.220586 0.130437 3 4 0
0.173543 0.220751 0.130603 3 4 0
0.173739 0.220916 0.130769 3 4 0
0.173934 0.221081 0.130934 3 4 0
0.174129 0.221245 0.1311 3 4 0
0.174323 0.221409 0.131264 3 4 0
0.174517 0.221573 0.131429 3 4 0
0.174711 0.221736 0.131593 3 4 0
0.174904 0.221898 0.131757 3 4 0
0.175096 0.222061 0.13192 3 4 0
0.175289 0.222223 0.132083 3 4 0
0.17548 0.222384 0.132246 3 4 0
0.175672 0.222546 0.132408 3 4 0
0.175862 0.222706 0.13257 3 4 0
0.176053 0.222867 0.132732 3 4 0
0.176243 0.223027 0.132893 3 4 0
0.176432 0.223186 0.133054 3 4 0
0.176621 0.223345 0.133214 3 4 0
0.176809 0.223504 0.133374 3 4 0
0.176997 0.223662 0.133534 3 4 0
0.177184 0.22382 0.133693 3 4 0
0.177371 0.223977 0.133852 3 4 0
0.177558 0.224134 0.13401 3 4 0
0.177743 0.224291 0.134168 3 4 0
0.177929 0.224447 0.134325 3 4 0
0.178113 0.224602 0.134482 3 4 0
0.178297 0.224757 0.134639 3 4 0
0.178481 0.224911 0.134795 3 4 0
0.178664 0.225065 0.134951 3 4 0
0.178846 0.225219 0.135106 3 4 0
0.179028 0.225372 0.13526 3 4 0
0.179209 0.225524 0.135414 3 4 0
0.17939 0.225676 0.135568 3 4 0
0.17957 0.225827 0.135721 3 4 0
0.179749 0.225978 0.135874 3 4 0
0.179928 0.226129 0.136026 3 4 0
0.180106 0.226279 0.136177 3 4 0
0.180283 0.226428 0.136328 3 4 0
0.18046 0.226577 0.136479 3 4 0
0.180636 0.226725 0.136629 3 4 0
0.180811 0.226872 0.136778 3 4 0
0.180986 0.227019 0.136927 3 4 0
0.18116 0.227166 0.137075 3 4 0
0.181333 0.227312 0.137223 3 4 0
0.181506 0.227457 0.13737 3 4 0
0.181677 0.227601 0.137516 3 4 0
0.181848 0.227745 0.137662 3 4 0
0.182019 0.227888 0.137807 3 4 0
0.182188 0.228031 0.137952 3 4 0
0.182357 0.228173 0.138096 3 4 0
0.182525 0.228314 0.138239 3 4 0
0.182692 0.228455 0.138381 3 4 0
0.182859 0.228594 0.138523 3 4 0
0.183024 0.228734 0.138664 3 4 0
0.183189 0.228872 0.138805 3 4 0
0.183353 0.22901 0.138945 3 4 0
0.183516 0.229146 0.139084 3 4 0
0.183678 0.229283 0.139223 3 4 0
0.183839 0.229418 0.13936 3 4 0
0.183999 0.229552 0.139497 3 4 0
0.184159 0.229686 0.139633 3 4 0
0.184317 0.229819 0.139769 3 4 0
0.184475 0.229951 0.139903 3 4 0
0.184632 0.230083 0.140038 3 4 0
0.184787 0.230213 0.14017 3 4 0
0.184942 0.230343 0.140303 3 4 0
0.185096 0.230472 0.140434 3 4 0
0.185248 0.2306 0.140565 3 4 0
0.1854 0.230728 0.140695 3 4 0
0.185551 0.230855 0.140824 3 4 0
0.1857 0.230981 0.140952 3 4 0
0.185849 0.231105 0.141079 3 4 0
0.185996 0.231229 0.141205 3 4 0
0.186143 0.231352 0.141331 3 4 0
0.186288 0.231474 0.141455 3 4 0
0.186432 0.231595 0.141579 3 4 0
0.186575 0.231715 0.141701 3 4 0
0.186717 0.231834 0.141823 3 4 0
0.186858 0.231952 0.141944 3 4 0
0.186997 0.232069 0.142063 3 4 0
0.187136 0.232185 0.142182 3 4 0
0.187273 0.2323 0.1423 3 4 0
0.187409 0.232414 0.142417 3 4 0
0.187543 0.232526 0.142533 3 4 0
0.187677 0.232638 0.142647 3 4 0
0.187809 0.232748 0.142761 3 4 0
0.18794 0.232858 0.142873 3 4 0
0.188069 0.232967 0.142985 3 4 0
0.188197 0.233075 0.143095 3 4 0
0.188324 0.233182 0.143205 3 4 0
0.188449 0.233287 0.143313 3 4 0
0.188574 0.233391 0.14342 3 4 0
0.188696 0.233494 0.143526 3 4 0
0.188817 0.233596 0.14363 3 4 0
0.188937 0.233696 0.143734 3 4 0
0.189056 0.233795 0.143837 3 4 0
0.189173 0.233893 0.143938 3 4 0
0.189288 0.23399 0.144038 3 4 0
0.189402 0.234085 0.144137 3 4 0
0.189514 0.234179 0.144234 3 4 0
0.189625 0.234271 0.14433 3 4 0
0.189735 0.234362 0.144426 3 4 0
0.189842 0.234453 0.144519 3 4 0
0.189949 0.234542 0.144612 3 4 0
0.190053 0.234631 0.144703 3 4 0
0.190156 0.234717 0.144793 3 4 0
0.190258 0.234803 0.144882 3 4 0
0.190358 0.234886 0.144969 3 4 0
0.190456 0.234969 0.145056 3 4 0
0.190552 0.235049 0.14514 3 4 0
0.190647 0.235129 0.145224 3 4 0
0.19074 0.235207 0.145306 3 4 0
0.190832 0.235283 0.145387 3 4 0
0.190922 0.235357 0.145466 3 4 0
0.19101 0.235431 0.145544 3 4 0
0.191096 0.235502 0.145621 3 4 0
0.191181 0.235574 0.145697 3 4 0
0.191264 0.235643 0.145771 3 4 0
0.191345 0.235712 0.145844 3 4 0
0.191424 0.235779 0.145915 3 4 0
0.191502 0.235844 0.145985 3 4 0
0.191578 0.235908 0.146054 3 4 0
0.191652 0.235971 0.146122 3 4 0
0.191725 0.236031 0.146188 3 4 0
0.191795 0.23609 0.146253 3 4 0
0.191864 0.236147 0.146316 3 4 0
0.191932 0.236203 0.146379 3 4 0
0.191997 0.236257 0.14644 3 4 0
0.192061 0.23631 0.1465 3 4 0
0.192123 0.236361 0.146559 3 4 0
0.192183 0.236413 0.146616 3 4 0
0.192242 0.236463 0.146673 3 4 0
0.192299 0.236511 0.146728 3 4 0
0.192354 0.236558 0.146782 3 4 0
0.192408 0.236603 0.146835 3 4 0
0.19246 0.236646 0.146887 3 4 0
0.19251 0.236688 0.146938 3 4 0
0.192559 0.236729 0.146988 3 4 0
0.192606 0.236768 0.147037 3 4 0
0.192651 0.236806 0.147085 3 4 0
0.192695 0.236842 0.147132 3 4 0
0.192737 0.236877 0.147179 3 4 0
0.192778 0.23691 0.147225 3 4 0
0.192817 0.236941 0.14727 3 4 0
0.192855 0.236973 0.147314 3 4 0
0.192892 0.237004 0.147359 3 4 0
0.192927 0.237034 0.147402 3 4 0
0.19296 0.237063 0.147445 3 4 0
0.192993 0.237091 0.147488 3 4 0
0.193024 0.237117 0.14753 3 4 0
0.193053 0.237142 0.147572 3 4 0
0.193082 0.237167 0.147614 3 4 0
0.193109 0.237189 0.147656 3 4 0
0.193135 0.237211 0.147698 3 4 0
0.19316 0.237232 0.147741 3 4 0
0.193183 0.237251 0.147783 3 4 0
0.193206 0.23727 0.147827 3 4 0
0.193227 0.237288 0.14787 3 4 0
0.193248 0.237304 0.147914 3 4 0
0.193267 0.23732 0.147959 3 4 0
0.193286 0.237335 0.148005 3 4 0
0.193303 0.237348 0.148052 3 4 0
0.19332 0.237362 0.1481 3 4 0
0.193336 0.237374 0.14815 3 4 0
0.193351 0.237386 0.148201 3 4 0
0.193365 0.237397 0.148254 3 4 0
0.193378 0.237409 0.148309 3 4 0
0.193391 0.237421 0.148366 3 4 0
0.193403 0.23743 0.148425 3 4 0
0.193414 0.237441 0.148487 3 4 0
0.193425 0.237451 0.148552 3 4 0
0.193435 0.237459 0.14862 3 4 0
0.193444 0.237468 0.148691 3 4 0
0.193453 0.237476 0.148765 3 4 0
0.193462 0.237483 0.148844 3 4 0
0.193469 0.23749 0.148927 3 4 0
0.193477 0.237497 0.149014 3 4 0
0.193484 0.237502 0.149106 3 4 0
0.19349 0.237508 0.149203 3 4 0
0.193496 0.237513 0.149305 3 4 0
0.193502 0.237518 0.149414 3 4 0
0.193507 0.237522 0.149528 3 4 0
0.193512 0.237527 0.149649 3 4 0
0.193517 0.23753 0.149777 3 4 0
0.193521 0.237534 0.149912 3 4 0
0.193525 0.237537 0.150054 3 4 0
0.193529 0.23754 0.150204 3 4 0
0.193532 0.237543 0.150363 3 4 0
0.193535 0.237546 0.15053 3 4 0
0.193538 0.237548 0.150706 3 4 0
0.193541 0.23755 0.150892 3 4 0
0.193544 0.237552 0.151086 3 4 0
0.193546 0.237554 0.151291 3 4 0
0.193548 0.237556 0.151505 3 4 0
0.19355 0.237557 0.15173 3 4 0
0.193552 0.237559 0.151964 3 4 0
0.193554 0.23756 0.15221 3 4 0
0.193556 0.237561 0.152465 3 4 0
0.193557 0.237563 0.152731 3 4 0
0.193559 0.237563 0.153007 3 4 0
0.19356 0.237564 0.153294 3 4 0
0.193561 0.237565 0.153591 3 4 0
0.193562 0.237566 0.153898 3 4 0
0.193563 0.237567 0.154215 3 4 0
0.193564 0.237568 0.154542 3 4 0
0.193565 0.237568 0.154879 3 4 0
0.193566 0.237569 0.155225 3 4 0
0.193566 0.237569 0.15558 3 4 0
0.193567 0.237569 0.155944 3 4 0
0.193568 0.237569 0.156316 3 4 0
0.193568 0.237569 0.156697 3 4 0
0.193569 0.237569 0.157086 3 4 0
0.193569 0.23757 0.157482 3 4 0
0.193569 0.23757 0.157886 3 4 0
0.19357 0.23757 0.158297 3 4 0
0.19357 0.23757 0.158714 3 4 0
0.19357 0.23757 0.159138 3 4 0
0.19357 0.237571 0.159568 3 4 0
0.193571 0.237571 0.160003 3 4 0
0.193571 0.237571 0.160445 3 4 0
0.193571 0.237571 0.160891 3 4 0
0.193571 0.237571 0.161342 3 4 0
0.193571 0.237572 0.161485 4 4 0
0.193571 0.237572 0.161942 4 4 0
0.193571 0.237571 0.162404 4 4 0
0.193571 0.237571 0.16287 4 4 0
0.19357 0.237571 0.163339 4 4 0
0.19357 0.237571 0.163813 4 4 0
0.19357 0.23757 0.164289 4 4 0
0.19357 0.23757 0.164769 4 4 0
0.19357 0.237569 0.165251 4 4 0
0.193569 0.237569 0.165737 4 4 0
0.193569 0.237568 0.166225 4 4 0
0.193568 0.237567 0.166715 4 4 0
0.193568 0.237566 0.167207 4 4 0
0.193568 0.237566 0.167702 4 4 0
0.193567 0.237565 0.168198 4 4 0
0.193566 0.237564 0.168696 4 4 0
0.193566 0.237563 0.169196 4 4 0
0.193565 0.237562 0.169697 4 4 0
0.193564 0.237561 0.170199 4 4 0
0.193564 0.23756 0.170703 4 4 0
0.193563 0.237559 0.171207 4 4 0
0.193562 0.237557 0.171712 4 4 0
0.193561 0.237556 0.172218 4 4 0
0.19356 0.237554 0.172725 4 4 0
0.193559 0.237551 0.173232 4 4 0
0.193558 0.237549 0.17374 4 4 0
0.193557 0.237547 0.174248 4 4 0
0.193555 0.237546 0.174756 4 4 0
0.193554 0.237544 0.175264 4 4 0
0.193553 0.237542 0.175772 4 4 0
0.193551 0.237541 0.17628 4 4 0
0.193549 0.237538 0.176788 4 4 0
0.193548 0.237535 0.177296 4 4 0
0.193546 0.237534 0.177803 4 4 0
0.193544 0.237531 0.17831 4 4 0
0.193542 0.237528 0.178817 4 4 0
0.19354 0.237525 0.179323 4 4 0
0.193538 0.237522 0.179828 4 4 0
0.193536 0.237518 0.180332 4 4 0
0.193533 0.237517 0.180836 4 4 0
0.193531 0.237514 0.181339 4 4 0
0.193528 0.23751 0.181841 4 4 0
0.193526 0.237506 0.182342 4 4 0
0.193523 0.237502 0.182842 4 4 0
0.19352 0.237498 0.18334 4 4 0
0.193517 0.237494 0.183838 4 4 0
0.193514 0.23749 0.184334 4 4 0
0.19351 0.237485 0.184829 4 4 0
0.193507 0.23748 0.185323 4 4 0
0.193503 0.237475 0.185815 4 4 0
0.193499 0.237469 0.186305 4 4 0
0.193495 0.237464 0.186794 4 4 0
0.193491 0.237458 0.187282 4 4 0
0.193486 0.237452 0.187768 4 4 0
0.193482 0.237445 0.188252 4 4 0
0.193477 0.237439 0.188734 4 4 0
0.193472 0.237432 0.189215 4 4 0
0.193467 0.237423 0.189694 4 4 0
0.193461 0.237416 0.190171 4 4 0
0.193456 0.237409 0.190646 4 4 0
0.19345 0.2374 0.191119 4 4 0
0.193444 0.237391 0.19159 4 4 0
0.193437 0.237383 0.192059 4 4 0
0.193431 0.237374 0.192526 4 4 0
0.193424 0.237364 0.19299 4 4 0
0.193417 0.237354 0.193453 4 4 0
0.19341 0.237345 0.193913 4 4 0
0.193402 0.237334 0.194371 4 4 0
0.193394 0.237322 0.194826 4 4 0
0.193386 0.237311 0.19528 4 4 0
0.193377 0.237299 0.19573 4 4 0
0.193368 0.237286 0.196179 4 4 0
0.193359 0.237274 0.196625 4 4 0
0.19335 0.23726 0.197068 4 4 0
0.19334 0.237246 0.197509 4 4 0
0.19333 0.237232 0.197947 4 4 0
0.19332 0.237217 0.198383 4 4 0
0.193309 0.237201 0.198816 4 4 0
0.193298 0.237185 0.199247 4 4 0
0.193286 0.237169 0.199674 4 4 0
0.193274 0.237151 0.200099 4 4 0
0.193262 0.237133 0.200521 4 4 0
0.193249 0.237115 0.200941 4 4 0
0.193236 0.237096 0.201357 4 4 0
0.193223 0.237076 0.201771 4 4 0
0.193209 0.237056 0.202182 4 4 0
0.193195 0.237035 0.20259 4 4 0
0.193181 0.237013 0.202995 4 4 0
0.193166 0.23699 0.203397 4 4 0
0.19315 0.236967 0.203796 4 4 0
0.193134 0.236943 0.204192 4 4 0
0.193118 0.236919 0.204585 4 4 0
0.193101 0.236894 0.204975 4 4 0
0.193084 0.236868 0.205361 4 4 0
0.193067 0.236841 0.205745 4 4 0
0.193049 0.236813 0.206126 4 4 0
0.193031 0.236785 0.206504 4 4 0
0.193012 0.236755 0.206878 4 4 0
0.192993 0.236725 0.207249 4 4 0
0.192973 0.236694 0.207617 4 4 0
0.192953 0.236662 0.207982 4 4 0
0.192932 0.236629 0.208344 4 4 0
0.192911 0.236596 0.208703 4 4 0
0.19289 0.236561 0.209058 4 4 0
0.192868 0.236526 0.20941 4 4 0
0.192846 0.23649 0.209759 4 4 0
0.192824 0.236453 0.210105 4 4 0
0.192801 0.236414 0.210447 4 4 0
0.192777 0.236375 0.210786 4 4 0
0.192753 0.236335 0.211122 4 4 0
0.192729 0.236294 0.211455 4 4 0
0.192705 0.236252 0.211784 4 4 0
0.19268 0.236209 0.21211 4 4 0
0.192655 0.236165 0.212433 4 4 0
0.192629 0.23612 0.212753 4 4 0
0.192603 0.236074 0.213069 4 4 0
0.192577 0.236027 0.213383 4 4 0
0.19255 0.235979 0.213693 4 4 0
0.192523 0.23593 0.213999 4 4 0
0.192496 0.23588 0.214303 4 4 0
0.192468 0.235829 0.214603 4 4 0
0.192441 0.235776 0.2149 4 4 0
0.192413 0.235723 0.215194 4 4 0
0.192384 0.235669 0.215485 4 4 0
0.192356 0.235613 0.215773 4 4 0
0.192327 0.235557 0.216057 4 4 0
0.192298 0.2355 0.216338 4 4 0
0.192269 0.235441 0.216617 4 4 0
0.19224 0.235381 0.216892 4 4 0
0.192211 0.235321 0.217164 4 4 0
0.192181 0.235259 0.217433 4 4 0
0.192152 0.235196 0.217699 4 4 0
0.192122 0.235132 0.217962 4 4 0
0.192092 0.235067 0.218222 4 4 0
0.192063 0.235001 0.218479 4 4 0
0.192033 0.234934 0.218733 4 4 0
0.192003 0.234866 0.218984 4 4 0
0.191973 0.234797 0.219232 4 4 0
0.191944 0.234726 0.219478 4 4 0
0.191914 0.234655 0.21972 4 4 0
0.191884 0.234582 0.21996 4 4 0
0.191855 0.234509 0.220197 4 4 0
0.191825 0.234434 0.220431 4 4 0
0.191796 0.234358 0.220663 4 4 0
0.191767 0.234281 0.220891 4 4 0
0.191738 0.234204 0.221117 4 4 0
0.19171 0.234125 0.221341 4 4 0
0.191681 0.234044 0.221562 4 4 0
0.191653 0.233963 0.22178 4 4 0
0.191625 0.233881 0.221995 4 4 0
0.191597 0.233798 0.222209 4 4 0
0.19157 0.233713 0.222419 4 4 0
0.191543 0.233628 0.222627 4 4 0
0.191516 0.233541 0.222833 4 4 0
0.19149 0.233454 0.223036 4 4 0
0.191464 0.233365 0.223237 4 4 0
0.191439 0.233275 0.223436 4 4 0
0.191414 0.233184 0.223632 4 4 0
0.191389 0.233092 0.223826 4 4 0
0.191365 0.232999 0.224018 4 4 0
0.191342 0.232905 0.224207 4 4 0
0.191319 0.23281 0.224395 4 4 0
0.191296 0.232714 0.22458 4 4 0
0.191274 0.232617 0.224763 4 4 0
0.191253 0.232518 0.224944 4 4 0
0.191232 0.232419 0.225123 4 4 0
0.191212 0.232318 0.2253 4 4 0
0.191192 0.232216 0.225475 4 4 0
0.191173 0.232113 0.225648 4 4 0
0.191155 0.232009 0.225819 4 4 0
0.191137 0.231904 0.225988 4 4 0
0.19112 0.231798 0.226155 4 4 0
0.191104 0.231691 0.22632 4 4 0
0.191088 0.231582 0.226484 4 4 0
0.191074 0.231473 0.226646 4 4 0
0.191059 0.231362 0.226806 4 4 0
0.191046 0.23125 0.226964 4 4 0
0.191033 0.231137 0.22712 4 4 0
0.191021 0.231023 0.227275 4 4 0
0.19101 0.230907 0.227428 4 4 0
0.191 0.230791 0.22758 4 4 0
0.190991 0.230673 0.227729 4 4 0
0.190982 0.230554 0.227878 4 4 0
0.190974 0.230434 0.228024 4 4 0
0.190967 0.230312 0.228169 4 4 0
0.19096 0.230189 0.228313 4 4 0
0.190955 0.230065 0.228455 4 4 0
0.19095 0.22994 0.228596 4 4 0
0.190947 0.229814 0.228735 4 4 0
0.190944 0.229686 0.228872 4 4 0
0.190941 0.229556 0.229009 4 4 0
0.19094 0.229426 0.229143 4 4 0
0.19094 0.229294 0.229277 3 4 0
0.19094 0.229286 0.229285 4 4 0
0.19094 0.229286 0.229285 4 4 0
0.19094 0.229417 0.229152 4 4 0
0.19094 0.229417 0.229152 4 4 0
0.190941 0.229548 0.229017 4 4 0
0.190943 0.229677 0.228881 4 4 0
0.190946 0.229805 0.228744 4 4 0
0.19095 0.229932 0.228605 4 4 0
0.190955 0.230057 0.228464 4 4 0
0.19096 0.230181 0.228322 4 4 0
0.190966 0.230304 0.228179 4 4 0
0.190973 0.230426 0.228034 4 4 0
0.190981 0.230546 0.227887 4 4 0
0.19099 0.230665 0.227739 4 4 0
0.190999 0.230783 0.227589 4 4 0
0.19101 0.2309 0.227438 4 4 0
0.191021 0.231015 0.227285 4 4 0
0.191033 0.23113 0.22713 4 4 0
0.191045 0.231243 0.226974 4 4 0
0.191058 0.231355 0.226816 4 4 0
0.191073 0.231465 0.226656 4 4 0
0.191087 0.231575 0.226495 4 4 0
0.191103 0.231684 0.226331 4 4 0
0.191119 0.231791 0.226166 4 4 0
0.191136 0.231897 0.225999 4 4 0
0.191154 0.232003 0.22583 4 4 0
0.191172 0.232107 0.225659 4 4 0
0.191191 0.232209 0.225486 4 4 0
0.19121 0.232311 0.225312 4 4 0
0.191231 0.232412 0.225135 4 4 0
0.191251 0.232512 0.224956 4 4 0
0.191273 0.23261 0.224775 4 4 0
0.191295 0.232708 0.224592 4 4 0
0.191317 0.232804 0.224407 4 4 0
0.19134 0.232899 0.22422 4 4 0
0.191364 0.232993 0.22403 4 4 0
0.191388 0.233086 0.223839 4 4 0
0.191412 0.233178 0.223645 4 4 0
0.191437 0.233269 0.223449 4 4 0
0.191463 0.233359 0.22325 4 4 0
0.191488 0.233448 0.22305 4 4 0
0.191515 0.233536 0.222846 4 4 0
0.191541 0.233622 0.222641 4 4 0
0.191568 0.233708 0.222433 4 4 0
0.191596 0.233792 0.222222 4 4 0
0.191623 0.233876 0.22201 4 4 0
0.191651 0.233958 0.221794 4 4 0
0.191679 0.234039 0.221576 4 4 0
0.191708 0.234119 0.221355 4 4 0
0.191736 0.234198 0.221132 4 4 0
0.191765 0.234276 0.220906 4 4 0
0.191794 0.234353 0.220678 4 4 0
0.191824 0.234429 0.220446 4 4 0
0.191853 0.234504 0.220212 4 4 0
0.191882 0.234578 0.219976 4 4 0
0.191912 0.23465 0.219736 4 4 0
0.191942 0.234722 0.219494 4 4 0
0.191971 0.234792 0.219249 4 4 0
0.192001 0.234862 0.219001 4 4 0
0.192031 0.23493 0.21875 4 4 0
0.192061 0.234997 0.218496 4 4 0
0.19209 0.235063 0.218239 4 4 0
0.19212 0.235128 0.217979 4 4 0
0.19215 0.235192 0.217716 4 4 0
0.192179 0.235255 0.217451 4 4 0
0.192209 0.235317 0.217182 4 4 0
0.192238 0.235378 0.21691 4 4 0
0.192267 0.235437 0.216635 4 4 0
0.192297 0.235496 0.216357 4 4 0
0.192325 0.235553 0.216076 4 4 0
0.192354 0.23561 0.215791 4 4 0
0.192383 0.235665 0.215504 4 4 0
0.192411 0.23572 0.215213 4 4 0
0.192439 0.235773 0.21492 4 4 0
0.192467 0.235825 0.214623 4 4 0
0.192494 0.235876 0.214323 4 4 0
0.192521 0.235927 0.214019 4 4 0
0.192548 0.235976 0.213713 4 4 0
0.192575 0.236024 0.213403 4 4 0
0.192601 0.236071 0.21309 4 4 0
0.192627 0.236117 0.212774 4 4 0
0.192653 0.236162 0.212454 4 4 0
0.192678 0.236206 0.212132 4 4 0
0.192703 0.236249 0.211806 4 4 0
0.192728 0.236291 0.211476 4 4 0
0.192752 0.236333 0.211144 4 4 0
0.192776 0.236373 0.210808 4 4 0
0.192799 0.236412 0.210469 4 4 0
0.192822 0.23645 0.210127 4 4 0
0.192845 0.236487 0.209782 4 4 0
0.192867 0.236524 0.209433 4 4 0
0.192889 0.236559 0.209081 4 4 0
0.19291 0.236594 0.208726 4 4 0
0.192931 0.236628 0.208368 4 4 0
0.192952 0.23666 0.208006 4 4 0
0.192972 0.236692 0.207641 4 4 0
0.192991 0.236723 0.207274 4 4 0
0.193011 0.236753 0.206902 4 4 0
0.193029 0.236783 0.206528 4 4 0
0.193048 0.236811 0.206151 4 4 0
0.193066 0.236839 0.20577 4 4 0
0.193083 0.236866 0.205387 4 4 0
0.1931 0.236892 0.205 4 4 0
0.193117 0.236918 0.20461 4 4 0
0.193133 0.236942 0.204218 4 4 0
0.193149 0.236966 0.203822 4 4 0
0.193165 0.236989 0.203423 4 4 0
0.19318 0.237011 0.203021 4 4 0
0.193194 0.237033 0.202616 4 4 0
0.193208 0.237054 0.202209 4 4 0
0.193222 0.237075 0.201798 4 4 0
0.193236 0.237095 0.201385 4 4 0
0.193249 0.237114 0.200968 4 4 0
0.193261 0.237132 0.200549 4 4 0
0.193274 0.23715 0.200127 4 4 0
0.193285 0.237167 0.199702 4 4 0
0.193297 0.237184 0.199275 4 4 0
0.193308 0.2372 0.198845 4 4 0
0.193319 0.237215 0.198412 4 4 0
0.193329 0.23723 0.197976 4 4 0
0.19334 0.237245 0.197538 4 4 0
0.193349 0.237259 0.197097 4 4 0
0.193359 0.237273 0.196654 4 4 0
0.193368 0.237286 0.196208 4 4 0
0.193377 0.237298 0.19576 4 4 0
0.193385 0.237309 0.195309 4 4 0
0.193393 0.237321 0.194856 4 4 0
0.193401 0.237333 0.194401 4 4 0
0.193409 0.237344 0.193943 4 4 0
0.193416 0.237354 0.193483 4 4 0
0.193424 0.237364 0.193021 4 4 0
0.19343 0.237374 0.192556 4 4 0
0.193437 0.237383 0.19209 4 4 0
0.193443 0.237392 0.191621 4 4 0
0.193449 0.2374 0.19115 4 4 0
0.193455 0.237409 0.190677 4 4 0
0.193461 0.237417 0.190202 4 4 0
0.193466 0.237424 0.189725 4 4 0
0.193472 0.237431 0.189247 4 4 0
0.193477 0.237438 0.188766 4 4 0
0.193481 0.237445 0.188284 4 4 0
0.193486 0.237452 0.1878 4 4 0
0.19349 0.237458 0.187314 4 4 0
0.193495 0.237462 0.186826 4 4 0
0.193499 0.237468 0.186337 4 4 0
0.193503 0.237474 0.185847 4 4 0
0.193506 0.237479 0.185355 4 4 0
0.19351 0.237484 0.184861 4 4 0
0.193513 0.237489 0.184367 4 4 0
0.193517 0.237494 0.18387 4 4 0
0.19352 0.237498 0.183373 4 4 0
0.193523 0.237502 0.182874 4 4 0
0.193526 0.237506 0.182375 4 4 0
0.193528 0.23751 0.181874 4 4 0
0.193531 0.237513 0.181372 4 4 0
0.193533 0.237517 0.180869 4 4 0
0.193536 0.23752 0.180365 4 4 0
0.193538 0.237523 0.179861 4 4 0
0.19354 0.237526 0.179356 4 4 0
0.193542 0.237529 0.17885 4 4 0
0.193544 0.237532 0.178344 4 4 0
0.193546 0.237532 0.177837 4 4 0
0.193548 0.237534 0.177329 4 4 0
0.193549 0.237536 0.176822 4 4 0
0.193551 0.237541 0.176314 4 4 0
0.193552 0.237543 0.175805 4 4 0
0.193554 0.237544 0.175297 4 4 0
0.193555 0.237547 0.174789 4 4 0
0.193556 0.237549 0.174281 4 4 0
0.193558 0.237551 0.173773 4 4 0
0.193559 0.237553 0.173265 4 4 0
0.19356 0.237554 0.172758 4 4 0
0.193561 0.237556 0.172252 4 4 0
0.193562 0.237557 0.171745 4 4 0
0.193563 0.237558 0.17124 4 4 0
0.193564 0.237559 0.170736 4 4 0
0.193564 0.237559 0.170232 4 4 0
0.193565 0.23756 0.16973 4 4 0
0.193566 0.237561 0.169229 4 4 0
0.193566 0.237564 0.168729 4 4 0
0.193567 0.237565 0.168231 4 4 0
0.193568 0.237566 0.167735 4 4 0
0.193568 0.237565 0.16724 4 4 0
0.193568 0.237566 0.166747 4 4 0
0.193569 0.237566 0.166257 4 4 0
0.193569 0.237566 0.165769 4 4 0
0.19357 0.237567 0.165283 4 4 0
0.19357 0.237568 0.1648 4 4 0
0.19357 0.23757 0.16432 4 4 0
0.19357 0.237571 0.163844 4 4 0
0.19357 0.237571 0.16337 4 4 0
0.193571 0.237571 0.162901 4 4 0
0.193571 0.237572 0.162434 4 4 0
0.193571 0.237572 0.161972 4 4 0
0.193571 0.237572 0.161515 4 4 0
0.193571 0.237572 0.161485 4 4 0
0.193571 0.237572 0.161032 3 4 0
0.193571 0.237572 0.160584 3 4 0
0.193571 0.237573 0.160141 3 4 0
0.19357 0.237573 0.159704 3 4 0
0.19357 0.237573 0.159272 3 4 0
0.19357 0.237573 0.158846 3 4 0
0.19357 0.237572 0.158427 3 4 0
0.19357 0.237572 0.158014 3 4 0
0.193569 0.237572 0.157608 3 4 0
0.193569 0.237572 0.157209 3 4 0
0.193568 0.237568 0.156818 3 4 0
0.193568 0.237568 0.156434 3 4 0
0.193567 0.237567 0.156059 3 4 0
0.193567 0.237568 0.155693 3 4 0
0.193566 0.237567 0.155335 3 4 0
0.193565 0.237566 0.154986 3 4 0
0.193564 0.237562 0.154646 3 4 0
0.193564 0.237562 0.154316 3 4 0
0.193563 0.237562 0.153996 3 4 0
0.193561 0.237565 0.153686 3 4 0
0.19356 0.237565 0.153386 3 4 0
0.193559 0.237564 0.153096 3 4 0
0.193558 0.237563 0.152816 3 4 0
0.193556 0.237562 0.152547 3 4 0
0.193555 0.23756 0.152288 3 4 0
0.193553 0.237555 0.15204 3 4 0
0.193551 0.237554 0.151802 3 4 0
0.193549 0.237553 0.151574 3 4 0
0.193547 0.237555 0.151357 3 4 0
0.193545 0.237553 0.151149 3 4 0
0.193542 0.237551 0.150952 3 4 0
0.193539 0.237549 0.150763 3 4 0
0.193536 0.237546 0.150584 3 4 0
0.193533 0.237543 0.150414 3 4 0
0.19353 0.237541 0.150253 3 4 0
0.193526 0.237538 0.1501 3 4 0
0.193522 0.237535 0.149955 3 4 0
0.193518 0.237531 0.149818 3 4 0
0.193514 0.237528 0.149688 3 4 0
0.193509 0.237523 0.149565 3 4 0
0.193504 0.237517 0.149449 3 4 0
0.193498 0.237513 0.149339 3 4 0
0.193492 0.237509 0.149234 3 4 0
0.193486 0.237502 0.149136 3 4 0
0.193479 0.237495 0.149042 3 4 0
0.193472 0.237488 0.148954 3 4 0
0.193464 0.237481 0.148869 3 4 0
0.193456 0.237473 0.14879 3 4 0
0.193447 0.237466 0.148714 3 4 0
0.193438 0.237463 0.148642 3 4 0
0.193428 0.237454 0.148573 3 4 0
0.193418 0.237444 0.148507 3 4 0
0.193407 0.237438 0.148444 3 4 0
0.193395 0.237429 0.148384 3 4 0
0.193382 0.237418 0.148327 3 4 0
0.193369 0.237407 0.148271 3 4 0
0.193355 0.237396 0.148218 3 4 0
0.19334 0.237383 0.148166 3 4 0
0.193325 0.237369 0.148116 3 4 0
0.193309 0.237354 0.148067 3 4 0
0.193291 0.237339 0.14802 3 4 0
0.193273 0.237327 0.147974 3 4 0
0.193254 0.23731 0.147928 3 4 0
0.193234 0.237293 0.147884 3 4 0
0.193213 0.237272 0.14784 3 4 0
0.19319 0.237252 0.147797 3 4 0
0.193167 0.237234 0.147754 3 4 0
0.193143 0.237214 0.147712 3 4 0
0.193117 0.237194 0.147669 3 4 0
0.19309 0.237173 0.147627 3 4 0
0.193062 0.237149 0.147585 3 4 0
0.193033 0.237124 0.147543 3 4 0
0.193002 0.237097 0.147501 3 4 0
0.192971 0.237074 0.147458 3 4 0
0.192937 0.237045 0.147415 3 4 0
0.192903 0.237016 0.147372 3 4 0
0.192867 0.236983 0.147328 3 4 0
0.192829 0.236952 0.147284 3 4 0
0.192791 0.23692 0.147239 3 4 0
0.19275 0.236888 0.147193 3 4 0
0.192708 0.236852 0.147147 3 4 0
0.192665 0.236815 0.1471 3 4 0
0.19262 0.236778 0.147052 3 4 0
0.192573 0.236738 0.147003 3 4 0
0.192525 0.236698 0.146954 3 4 0
0.192476 0.236659 0.146903 3 4 0
0.192424 0.236617 0.146851 3 4 0
0.192371 0.236572 0.146799 3 4 0
0.192316 0.236526 0.146745 3 4 0
0.19226 0.236479 0.14669 3 4 0
0.192202 0.236431 0.146634 3 4 0
0.192142 0.23638 0.146577 3 4 0
0.192081 0.236329 0.146519 3 4 0
0.192017 0.236275 0.146459 3 4 0
0.191952 0.236222 0.146398 3 4 0
0.191886 0.236166 0.146336 3 4 0
0.191817 0.236108 0.146273 3 4 0
0.191747 0.23605 0.146208 3 4 0
0.191675 0.23599 0.146142 3 4 0
0.191601 0.235928 0.146075 3 4 0
0.191526 0.235864 0.146007 3 4 0
0.191449 0.2358 0.145937 3 4 0
0.19137 0.235734 0.145866 3 4 0
0.191289 0.235667 0.145794 3 4 0
0.191207 0.235598 0.14572 3 4 0
0.191123 0.235527 0.145645 3 4 0
0.191037 0.235452 0.145568 3 4 0
0.190949 0.23538 0.145491 3 4 0
0.19086 0.235306 0.145412 3 4 0
0.190769 0.235229 0.145331 3 4 0
0.190677 0.235152 0.14525 3 4 0
0.190582 0.235074 0.145167 3 4 0
0.190486 0.234994 0.145082 3 4 0
0.190389 0.234912 0.144996 3 4 0
0.190289 0.234829 0.14491 3 4 0
0.190188 0.234744 0.144821 3 4 0
0.190086 0.234659 0.144731 3 4 0
0.189982 0.234571 0.144641 3 4 0
0.189876 0.234481 0.144548 3 4 0
0.189769 0.234392 0.144455 3 4 0
0.18966 0.234301 0.14436 3 4 0
0.189549 0.234207 0.144264 3 4 0
0.189437 0.234113 0.144167 3 4 0
0.189324 0.234019 0.144069 3 4 0
0.189209 0.233921 0.143969 3 4 0
0.189092 0.233824 0.143868 3 4 0
0.188974 0.233726 0.143766 3 4 0
0.188855 0.233626 0.143663 3 4 0
0.188734 0.233525 0.143559 3 4 0
0.188612 0.233423 0.143453 3 4 0
0.188488 0.233319 0.143346 3 4 0
0.188363 0.233215 0.143239 3 4 0
0.188237 0.233109 0.14313 3 4 0
0.188109 0.233001 0.14302 3 4 0
0.18798 0.232892 0.142909 3 4 0
0.18785 0.232782 0.142796 3 4 0
0.187718 0.232672 0.142683 3 4 0
0.187585 0.232561 0.142569 3 4 0
0.187451 0.232449 0.142453 3 4 0
0.187315 0.232336 0.142337 3 4 0
0.187179 0.232222 0.142219 3 4 0
0.187041 0.232106 0.142101 3 4 0
0.186902 0.231989 0.141981 3 4 0
0.186761 0.23187 0.141861 3 4 0
0.18662 0.231751 0.141739 3 4 0
0.186477 0.231631 0.141617 3 4 0
0.186333 0.231511 0.141494 3 4 0
0.186188 0.23139 0.14137 3 4 0
0.186042 0.231268 0.141245 3 4 0
0.185895 0.231145 0.141119 3 4 0
0.185747 0.23102 0.140992 3 4 0
0.185598 0.230893 0.140864 3 4 0
0.185447 0.230767 0.140735 3 4 0
0.185296 0.23064 0.140605 3 4 0
0.185144 0.230512 0.140475 3 4 0
0.18499 0.230384 0.140344 3 4 0
0.184836 0.230254 0.140212 3 4 0
0.18468 0.230123 0.140079 3 4 0
0.184524 0.229992 0.139945 3 4 0
0.184367 0.22986 0.139811 3 4 0
0.184209 0.229727 0.139676 3 4 0
0.184049 0.229593 0.13954 3 4 0
0.183889 0.229459 0.139403 3 4 0
0.183728 0.229325 0.139266 3 4 0
0.183566 0.229189 0.139127 3 4 0
0.183404 0.229052 0.138988 3 4 0
0.18324 0.228914 0.138849 3 4 0
0.183076 0.228775 0.138709 3 4 0
0.18291 0.228636 0.138567 3 4 0
0.182744 0.228498 0.138426 3 4 0
0.182577 0.228358 0.138284 3 4 0
0.18241 0.228217 0.13814 3 4 0
0.182241 0.228076 0.137997 3 4 0
0.182072 0.227933 0.137852 3 4 0
0.181902 0.22779 0.137707 3 4 0
0.181731 0.227645 0.137562 3 4 0
0.181559 0.227501 0.137416 3 4 0
0.181387 0.227356 0.137269 3 4 0
0.181214 0.227211 0.137121 3 4 0
0.18104 0.227065 0.136973 3 4 0
0.180866 0.226918 0.136825 3 4 0
0.180691 0.226772 0.136676 3 4 0
0.180515 0.226624 0.136526 3 4 0
0.180338 0.226476 0.136376 3 4 0
0.180161 0.226326 0.136225 3 4 0
0.179983 0.226177 0.136073 3 4 0
0.179805 0.226027 0.135921 3 4 0
0.179626 0.225876 0.135769 3 4 0
0.179446 0.225725 0.135616 3 4 0
0.179266 0.225573 0.135463 3 4 0
0.179085 0.225421 0.135309 3 4 0
0.178903 0.225268 0.135154 3 4 0
0.178721 0.225114 0.134999 3 4 0
0.178538 0.22496 0.134844 3 4 0
0.178355 0.224806 0.134688 3 4 0
0.178171 0.224651 0.134531 3 4 0
0.177986 0.224496 0.134375 3 4 0
0.177801 0.22434 0.134217 3 4 0
0.177616 0.224184 0.13406 3 4 0
0.17743 0.224027 0.133901 3 4 0
0.177243 0.22387 0.133743 3 4 0
0.177056 0.223712 0.133584 3 4 0
0.176868 0.223553 0.133424 3 4 0
0.17668 0.223395 0.133265 3 4 0
0.176491 0.223236 0.133104 3 4 0
0.176302 0.223077 0.132944 3 4 0
0.176112 0.222917 0.132783 3 4 0
0.175922 0.222757 0.132621 3 4 0
0.175731 0.222596 0.132459 3 4 0
0.17554 0.222434 0.132297 3 4 0
0.175349 0.222273 0.132134 3 4 0
0.175157 0.222112 0.131971 3 4 0
0.174964 0.22195 0.131808 3 4 0
0.174771 0.221787 0.131644 3 4 0
0.174578 0.221623 0.13148 3 4 0
0.174384 0.221459 0.131316 3 4 0
0.17419 0.221295 0.131151 3 4 0
0.173995 0.221133 0.130986 3 4 0
0.1738 0.220968 0.130821 3 4 0
0.173605 0.220803 0.130655 3 4 0
0.173409 0.220638 0.130489 3 4 0
0.173212 0.220472 0.130323 3 4 0
0.173016 0.220306 0.130156 3 4 0
0.172819 0.22014 0.129989 3 4 0
0.172621 0.219974 0.129821 3 4 0
0.172423 0.219807 0.129654 3 4 0
0.172225 0.21964 0.129486 3 4 0
0.172027 0.219472 0.129318 3 4 0
0.171828 0.219305 0.129149 3 4 0
0.171629 0.219136 0.128981 3 4 0
0.171429 0.218967 0.128811 3 4 0
0.171229 0.218798 0.128642 3 4 0
0.171029 0.21863 0.128473 3 4 0
0.170828 0.218461 0.128303 3 4 0
0.170627 0.218291 0.128133 3 4 0
0.170426 0.21812 0.127962 3 4 0
0.170224 0.21795 0.127792 3 4 0
0.170023 0.217779 0.127621 3 4 0
0.16982 0.217609 0.12745 3 4 0
0.169618 0.217438 0.127279 3 4 0
0.169415 0.217267 0.127107 3 4 0
0.169212 0.217095 0.126935 3 4 0
0.169009 0.216923 0.126763 3 4 0
0.168805 0.216751 0.126591 3 4 0
0.168601 0.21658 0.126419 3 4 0
0.168397 0.216407 0.126246 3 4 0
0.168192 0.216234 0.126073 3 4 0
0.167987 0.216061 0.1259 3 4 0
0.167782 0.215888 0.125726 3 4 0
0.167577 0.215714 0.125553 3 4 0
0.167371 0.21554 0.125379 3 4 0
0.167165 0.215366 0.125205 3 4 0
0.166959 0.215192 0.125031 3 4 0
0.166753 0.215017 0.124857 3 4 0
0.166546 0.214842 0.124682 3 4 0
0.16634 0.214667 0.124508 3 4 0
0.166132 0.214492 0.124333 3 4 0
0.165925 0.214317 0.124158 3 4 0
0.165718 0.214141 0.123983 3 4 0
0.16551 0.213967 0.123808 3 4 0
0.165302 0.213791 0.123632 3 4 0
0.165094 0.213615 0.123456 3 4 0
0.164885 0.213438 0.12328 3 4 0
0.164677 0.213262 0.123104 3 4 0
0.164468 0.213085 0.122928 3 4 0
0.164259 0.212908 0.122752 3 4 0
0.164049 0.212731 0.122575 3 4 0
0.16384 0.212554 0.122399 3 4 0
0.16363 0.212376 0.122222 3 4 0
0.16342 0.212198 0.122045 3 4 0
0.16321 0.21202 0.121868 3 4 0
0.163 0.211842 0.12169 3 4 0
