0.0383934 0.559713 0.559713 2 2 3
0.0383931 0.559706 0.559706 2 2 3
0.0383928 0.559699 0.559699 2 2 3
0.0383926 0.559692 0.559692 2 2 3
0.0383923 0.559685 0.559685 2 2 3
0.038392 0.559678 0.559678 2 2 3
0.0383918 0.559671 0.559671 2 2 3
0.0383915 0.559664 0.559664 2 2 3
0.0383912 0.559657 0.559657 2 2 3
0.0383909 0.55965 0.55965 2 2 3
0.0383907 0.559643 0.559643 2 2 3
0.0383904 0.559637 0.559637 2 2 3
0.0383901 0.55963 0.55963 2 2 3
0.0383899 0.559623 0.559623 2 2 3
0.0383896 0.559616 0.559616 2 2 3
0.0400469 0.6 0.6 2 2 3
0.040047 0.600002 0.600002 2 2 3
0.0400476 0.600016 0.600016 2 2 3
0.0400485 0.600037 0.600037 2 2 3
0.0400503 0.600077 0.600077 2 2 3
0.0400525 0.600128 0.600128 2 2 3
0.0400548 0.60018 0.60018 2 2 3
0.040057 0.600231 0.600231 2 2 3
0.0400592 0.600282 0.600282 2 2 3
0.0400615 0.600333 0.600333 2 2 3
0.0400637 0.600385 0.600385 2 2 3
0.040066 0.600436 0.600436 2 2 3
0.0400682 0.600488 0.600488 2 2 3
0.0400705 0.600539 0.600539 2 2 3
0.0400727 0.600591 0.600591 2 2 3
0.040075 0.600643 0.600643 2 2 3
0.0400772 0.600694 0.600694 2 2 3
0.0400795 0.600746 0.600746 2 2 3
0.0400818 0.600798 0.600798 2 2 3
0.040084 0.60085 0.60085 2 2 3
0.0400863 0.600902 0.600902 2 2 3
0.0400886 0.600954 0.600954 2 2 3
0.0400909 0.601007 0.601007 2 2 3
0.0400932 0.601059 0.601059 2 2 3
0.0400955 0.601111 0.601111 2 2 3
0.0400978 0.601164 0.601164 2 2 3
0.0401001 0.601216 0.601216 2 2 3
0.0401024 0.601269 0.601269 2 2 3
0.0401047 0.601321 0.601321 2 2 3
0.040107 0.601374 0.601374 2 2 3
0.0401093 0.601427 0.601427 2 2 3
0.0401116 0.601479 0.601479 2 2 3
0.0401139 0.601532 0.601532 2 2 3
0.0401162 0.601585 0.601585 2 2 3
0.0401186 0.601638 0.601638 2 2 3
0.0401209 0.601691 0.601691 2 2 3
0.0401232 0.601745 0.601745 2 2 3
0.0401256 0.601798 0.601798 2 2 3
0.0401279 0.601851 0.601851 2 2 3
0.0401302 0.601905 0.601905 2 2 3
0.0401326 0.601958 0.601958 2 2 3
0.0401349 0.602012 0.602012 2 2 3
0.0401373 0.602065 0.602065 2 2 3
0.0401396 0.602119 0.602119 2 2 3
0.040142 0.602173 0.602173 2 2 3
0.0401444 0.602226 0.602226 2 2 3
0.0401467 0.60228 0.60228 2 2 3
0.0401491 0.602334 0.602334 2 2 3
0.0401515 0.602388 0.602388 2 2 3
0.0401538 0.602442 0.602442 2 2 3
0.0401562 0.602496 0.602496 2 2 3
0.0401586 0.602551 0.602551 2 2 3
0.040161 0.602605 0.602605 2 2 3
0.0401634 0.602659 0.602659 2 2 3
0.0401658 0.602714 0.602714 2 2 3
0.0401682 0.602768 0.602768 2 2 3
0.0401706 0.602823 0.602823 2 2 3
0.040173 0.602877 0.602877 2 2 3
0.0401754 0.602932 0.602932 2 2 3
0.0401778 0.602987 0.602987 2 2 3
0.0401802 0.603042 0.603042 2 2 3
0.0401827 0.603097 0.603097 2 2 3
0.0401851 0.603152 0.603152 2 2 3
0.0401875 0.603207 0.603207 2 2 3
0.0401899 0.603262 0.603262 2 2 3
0.0401924 0.603317 0.603317 2 2 3
0.0401948 0.603373 0.603373 2 2 3
0.0401973 0.603428 0.603428 2 2 3
0.0401997 0.603484 0.603484 2 2 3
0.0402022 0.603539 0.603539 2 2 3
0.0402046 0.603595 0.603595 2 2 3
0.0402071 0.60365 0.60365 2 2 3
0.0402095 0.603706 0.603706 2 2 3
0.040212 0.603762 0.603762 2 2 3
0.0402145 0.603818 0.603818 2 2 3
0.0402169 0.603874 0.603874 2 2 3
0.0402194 0.60393 0.60393 2 2 3
0.0402219 0.603986 0.603986 2 2 3
0.0402244 0.604042 0.604042 2 2 3
0.0402269 0.604098 0.604098 2 2 3
0.0402293 0.604155 0.604155 2 2 3
0.0402318 0.604211 0.604211 2 2 3
0.0402343 0.604268 0.604268 2 2 3
0.0402368 0.604324 0.604324 2 2 3
0.0402393 0.604381 0.604381 2 2 3
0.0402419 0.604438 0.604438 2 2 3
0.0402444 0.604494 0.604494 2 2 3
0.0402469 0.604551 0.604551 2 2 3
0.0402494 0.604608 0.604608 2 2 3
0.0402519 0.604665 0.604665 2 2 3
0.0402545 0.604722 0.604722 2 2 3
0.040257 0.60478 0.60478 2 2 3
0.0402595 0.604837 0.604837 2 2 3
0.0402621 0.604894 0.604894 2 2 3
0.0402646 0.604952 0.604952 2 2 3
0.0402672 0.605009 0.605009 2 2 3
0.0402697 0.605067 0.605067 2 2 3
0.0402723 0.605124 0.605124 2 2 3
0.0402748 0.605182 0.605182 2 2 3
0.0402774 0.60524 0.60524 2 2 3
0.04028 0.605298 0.605298 2 2 3
0.0402825 0.605356 0.605356 2 2 3
0.0402851 0.605414 0.605414 2 2 3
0.0402877 0.605472 0.605472 2 2 3
0.0402903 0.60553 0.60553 2 2 3
0.0402929 0.605588 0.605588 2 2 3
0.0402955 0.605647 0.605647 2 2 3
0.0402981 0.605705 0.605705 2 2 3
0.0403007 0.605763 0.605763 2 2 3
0.0403033 0.605822 0.605822 2 2 3
0.0403059 0.605881 0.605881 2 2 3
0.0403085 0.605939 0.605939 2 2 3
0.0403111 0.605998 0.605998 2 2 3
0.0403137 0.606057 0.606057 2 2 3
0.0403163 0.606116 0.606116 2 2 3
0.040319 0.606175 0.606175 2 2 3
0.0403216 0.606234 0.606234 2 2 3
0.0403242 0.606293 0.606293 2 2 3
0.0403269 0.606353 0.606353 2 2 3
0.0403295 0.606412 0.606412 2 2 3
0.0403322 0.606471 0.606471 2 2 3
0.0403348 0.606531 0.606531 2 2 3
0.0403375 0.606591 0.606591 2 2 3
0.0403401 0.60665 0.60665 2 2 3
0.0403428 0.60671 0.60671 2 2 3
0.0403455 0.60677 0.60677 2 2 3
0.0403481 0.60683 0.60683 2 2 3
0.0403508 0.60689 0.60689 2 2 3
0.0403535 0.60695 0.60695 2 2 3
0.0403562 0.60701 0.60701 2 2 3
0.0403589 0.60707 0.60707 2 2 3
0.0403616 0.607131 0.607131 2 2 3
0.0403643 0.607191 0.607191 2 2 3
0.040367 0.607251 0.607251 2 2 3
0.0403697 0.607312 0.607312 2 2 3
0.0403724 0.607373 0.607373 2 2 3
0.0403751 0.607433 0.607433 2 2 3
0.0403778 0.607494 0.607494 2 2 3
0.0403805 0.607555 0.607555 2 2 3
0.0403833 0.607616 0.607616 2 2 3
0.040386 0.607677 0.607677 2 2 3
0.0403887 0.607738 0.607738 2 2 3
0.0403915 0.607799 0.607799 2 2 3
0.0403942 0.607861 0.607861 2 2 3
0.040397 0.607922 0.607922 2 2 3
0.0403997 0.607984 0.607984 2 2 3
0.0404025 0.608045 0.608045 2 2 3
0.0404052 0.608107 0.608107 2 2 3
0.040408 0.608169 0.608169 2 2 3
0.0404108 0.60823 0.60823 2 2 3
0.0404136 0.608292 0.608292 2 2 3
0.0404163 0.608354 0.608354 2 2 3
0.0404191 0.608416 0.608416 2 2 3
0.0404219 0.608478 0.608478 2 2 3
0.0404247 0.608541 0.608541 2 2 3
0.0404275 0.608603 0.608603 2 2 3
0.0404303 0.608665 0.608665 2 2 3
0.0404331 0.608728 0.608728 2 2 3
0.0404359 0.60879 0.60879 2 2 3
0.0404387 0.608853 0.608853 2 2 3
0.0404415 0.608916 0.608916 2 2 3
0.0404444 0.608979 0.608979 2 2 3
0.0404472 0.609041 0.609041 2 2 3
0.04045 0.609104 0.609104 2 2 3
0.0404529 0.609167 0.609167 2 2 3
0.0404557 0.609231 0.609231 2 2 3
0.0404586 0.609294 0.609294 2 2 3
0.0404614 0.609357 0.609357 2 2 3
0.0404643 0.609421 0.609421 2 2 3
0.0404671 0.609484 0.609484 2 2 3
0.04047 0.609548 0.609548 2 2 3
0.0404728 0.609611 0.609611 2 2 3
0.0404757 0.609675 0.609675 2 2 3
0.0404786 0.609739 0.609739 2 2 3
0.0404815 0.609803 0.609803 2 2 3
0.0404844 0.609867 0.609867 2 2 3
0.0404873 0.609931 0.609931 2 2 3
0.0404901 0.609995 0.609995 2 2 3
0.040493 0.610059 0.610059 2 2 3
0.0404959 0.610124 0.610124 2 2 3
0.0404989 0.610188 0.610188 2 2 3
0.0405018 0.610253 0.610253 2 2 3
0.0405047 0.610317 0.610317 2 2 3
0.0405076 0.610382 0.610382 2 2 3
0.0405105 0.610447 0.610447 2 2 3
0.0405135 0.610512 0.610512 2 2 3
0.0405164 0.610577 0.610577 2 2 3
0.0405193 0.610642 0.610642 2 2 3
0.0405223 0.610707 0.610707 2 2 3
0.0405252 0.610772 0.610772 2 2 3
0.0405282 0.610838 0.610838 2 2 3
0.0405312 0.610903 0.610903 2 2 3
0.0405341 0.610969 0.610969 2 2 3
0.0405371 0.611034 0.611034 2 2 3
0.0405401 0.6111 0.6111 2 2 3
0.040543 0.611166 0.611166 2 2 3
0.040546 0.611231 0.611231 2 2 3
0.040549 0.611297 0.611297 2 2 3
0.040552 0.611364 0.611364 2 2 3
0.040555 0.61143 0.61143 2 2 3
0.040558 0.611496 0.611496 2 2 3
0.040561 0.611562 0.611562 2 2 3
0.040564 0.611629 0.611629 2 2 3
0.0405671 0.611695 0.611695 2 2 3
0.0405701 0.611762 0.611762 2 2 3
0.0405731 0.611828 0.611828 2 2 3
0.0405761 0.611895 0.611895 2 2 3
0.0405792 0.611962 0.611962 2 2 3
0.0405822 0.612029 0.612029 2 2 3
0.0405853 0.612096 0.612096 2 2 3
0.0405883 0.612163 0.612163 2 2 3
0.0405914 0.61223 0.61223 2 2 3
0.0405944 0.612298 0.612298 2 2 3
0.0405975 0.612365 0.612365 2 2 3
0.0406006 0.612433 0.612433 2 2 3
0.0406036 0.6125 0.6125 2 2 3
0.0406067 0.612568 0.612568 2 2 3
0.0406098 0.612636 0.612636 2 2 3
0.0406129 0.612704 0.612704 2 2 3
0.040616 0.612772 0.612772 2 2 3
0.0406191 0.61284 0.61284 2 2 3
0.0406222 0.612908 0.612908 2 2 3
0.0406253 0.612976 0.612976 2 2 3
0.0406284 0.613044 0.613044 2 2 3
0.0406315 0.613113 0.613113 2 2 3
0.0406347 0.613181 0.613181 2 2 3
0.0406378 0.61325 0.61325 2 2 3
0.0406409 0.613319 0.613319 2 2 3
0.0406441 0.613388 0.613388 2 2 3
0.0406472 0.613456 0.613456 2 2 3
0.0406504 0.613525 0.613525 2 2 3
0.0406535 0.613595 0.613595 2 2 3
0.0406567 0.613664 0.613664 2 2 3
0.0406599 0.613733 0.613733 2 2 3
0.040663 0.613802 0.613802 2 2 3
0.0406662 0.613872 0.613872 2 2 3
0.0406694 0.613942 0.613942 2 2 3
0.0406726 0.614011 0.614011 2 2 3
0.0406758 0.614081 0.614081 2 2 3
0.040679 0.614151 0.614151 2 2 3
0.0406822 0.614221 0.614221 2 2 3
0.0406854 0.614291 0.614291 2 2 3
0.0406886 0.614361 0.614361 2 2 3
0.0406918 0.614431 0.614431 2 2 3
0.040695 0.614502 0.614502 2 2 3
0.0406983 0.614572 0.614572 2 2 3
0.0407015 0.614643 0.614643 2 2 3
0.0407047 0.614713 0.614713 2 2 3
0.040708 0.614784 0.614784 2 2 3
0.0407112 0.614855 0.614855 2 2 3
0.0407145 0.614926 0.614926 2 2 3
0.0407178 0.614997 0.614997 2 2 3
0.040721 0.615068 0.615068 2 2 3
0.0407243 0.615139 0.615139 2 2 3
0.0407276 0.61521 0.61521 2 2 3
0.0407309 0.615282 0.615282 2 2 3
0.0407341 0.615353 0.615353 2 2 3
0.0407374 0.615425 0.615425 2 2 3
0.0407407 0.615497 0.615497 2 2 3
0.040744 0.615569 0.615569 2 2 3
0.0407473 0.61564 0.61564 2 2 3
0.0407507 0.615712 0.615712 2 2 3
0.040754 0.615785 0.615785 2 2 3
0.0407573 0.615857 0.615857 2 2 3
0.0407606 0.615929 0.615929 2 2 3
0.040764 0.616002 0.616002 2 2 3
0.0407673 0.616074 0.616074 2 2 3
0.0407707 0.616147 0.616147 2 2 3
0.040774 0.616219 0.616219 2 2 3
0.0407774 0.616292 0.616292 2 2 3
0.0407807 0.616365 0.616365 2 2 3
0.0407841 0.616438 0.616438 2 2 3
0.0407875 0.616511 0.616511 2 2 3
0.0407909 0.616584 0.616584 2 2 3
0.0407943 0.616658 0.616658 2 2 3
0.0407977 0.616731 0.616731 2 2 3
0.040801 0.616805 0.616805 2 2 3
0.0408045 0.616878 0.616878 2 2 3
0.0408079 0.616952 0.616952 2 2 3
0.0408113 0.617026 0.617026 2 2 3
0.0408147 0.6171 0.6171 2 2 3
0.0408181 0.617174 0.617174 2 2 3
0.0408216 0.617248 0.617248 2 2 3
0.040825 0.617322 0.617322 2 2 3
0.0408284 0.617397 0.617397 2 2 3
0.0408319 0.617471 0.617471 2 2 3
0.0408353 0.617546 0.617546 2 2 3
0.0408388 0.61762 0.61762 2 2 3
0.0408423 0.617695 0.617695 2 2 3
0.0408457 0.61777 0.61777 2 2 3
0.0408492 0.617845 0.617845 2 2 3
0.0408527 0.61792 0.61792 2 2 3
0.0408562 0.617995 0.617995 2 2 3
0.0408597 0.61807 0.61807 2 2 3
0.0408632 0.618146 0.618146 2 2 3
0.0408667 0.618221 0.618221 2 2 3
0.0408702 0.618297 0.618297 2 2 3
0.0408737 0.618373 0.618373 2 2 3
0.0408772 0.618448 0.618448 2 2 3
0.0408808 0.618524 0.618524 2 2 3
0.0408843 0.6186 0.6186 2 2 3
0.0408879 0.618677 0.618677 2 2 3
0.0408914 0.618753 0.618753 2 2 3
0.040895 0.618829 0.618829 2 2 3
0.0408985 0.618906 0.618906 2 2 3
0.0409021 0.618982 0.618982 2 2 3
0.0409057 0.619059 0.619059 2 2 3
0.0409092 0.619136 0.619136 2 2 3
0.0409128 0.619212 0.619212 2 2 3
0.0409164 0.619289 0.619289 2 2 3
0.04092 0.619366 0.619366 2 2 3
0.0409236 0.619444 0.619444 2 2 3
0.0409272 0.619521 0.619521 2 2 3
0.0409308 0.619598 0.619598 2 2 3
0.0409345 0.619676 0.619676 2 2 3
0.0409381 0.619753 0.619753 2 2 3
0.0409417 0.619831 0.619831 2 2 3
0.0409454 0.619909 0.619909 2 2 3
0.040949 0.619987 0.619987 2 2 3
0.0409526 0.620065 0.620065 2 2 3
0.0409563 0.620143 0.620143 2 2 3
0.04096 0.620222 0.620222 2 2 3
0.0409636 0.6203 0.6203 2 2 3
0.0409673 0.620378 0.620378 2 2 3
0.040971 0.620457 0.620457 2 2 3
0.0409747 0.620536 0.620536 2 2 3
0.0409784 0.620615 0.620615 2 2 3
0.0409821 0.620694 0.620694 2 2 3
0.0409858 0.620773 0.620773 2 2 3
0.0409895 0.620852 0.620852 2 2 3
0.0409932 0.620931 0.620931 2 2 3
0.0409969 0.62101 0.62101 2 2 3
0.0410007 0.62109 0.62109 2 2 3
0.0410044 0.621169 0.621169 2 2 3
0.0410082 0.621249 0.621249 2 2 3
0.0410119 0.621329 0.621329 2 2 3
0.0410157 0.621409 0.621409 2 2 3
0.0410194 0.621489 0.621489 2 2 3
0.0410232 0.621569 0.621569 2 2 3
0.041027 0.621649 0.621649 2 2 3
0.0410308 0.62173 0.62173 2 2 3
0.0410346 0.62181 0.62181 2 2 3
0.0410384 0.621891 0.621891 2 2 3
0.0410422 0.621972 0.621972 2 2 3
0.041046 0.622053 0.622053 2 2 3
0.0410498 0.622133 0.622133 2 2 3
0.0410536 0.622215 0.622215 2 2 3
0.0410574 0.622296 0.622296 2 2 3
0.0410613 0.622377 0.622377 2 2 3
0.0410651 0.622458 0.622458 2 2 3
0.041069 0.62254 0.62254 2 2 3
0.0410728 0.622622 0.622622 2 2 3
0.0410767 0.622703 0.622703 2 2 3
0.0410806 0.622785 0.622785 2 2 3
0.0410844 0.622867 0.622867 2 2 3
0.0410883 0.622949 0.622949 2 2 3
0.0410922 0.623032 0.623032 2 2 3
0.0410961 0.623114 0.623114 2 2 3
0.0411 0.623196 0.623196 2 2 3
0.0411039 0.623279 0.623279 2 2 3
0.0411078 0.623362 0.623362 2 2 3
0.0411117 0.623444 0.623444 2 2 3
0.0411157 0.623527 0.623527 2 2 3
0.0411196 0.62361 0.62361 2 2 3
0.0411236 0.623693 0.623693 2 2 3
0.0411275 0.623777 0.623777 2 2 3
0.0411315 0.62386 0.62386 2 2 3
0.0411354 0.623944 0.623944 2 2 3
0.0411394 0.624027 0.624027 2 2 3
0.0411434 0.624111 0.624111 2 2 3
0.0411474 0.624195 0.624195 2 2 3
0.0411513 0.624279 0.624279 2 2 3
0.0411553 0.624363 0.624363 2 2 3
0.0411593 0.624447 0.624447 2 2 3
0.0411634 0.624531 0.624531 2 2 3
0.0411674 0.624616 0.624616 2 2 3
0.0411714 0.6247 0.6247 2 2 3
0.0411754 0.624785 0.624785 2 2 3
0.0411795 0.62487 0.62487 2 2 3
0.0411835 0.624955 0.624955 2 2 3
0.0411876 0.62504 0.62504 2 2 3
0.0411916 0.625125 0.625125 2 2 3
0.0411957 0.62521 0.62521 2 2 3
0.0411998 0.625296 0.625296 2 2 3
0.0412039 0.625381 0.625381 2 2 3
0.0412079 0.625467 0.625467 2 2 3
0.041212 0.625553 0.625553 2 2 3
0.0412161 0.625638 0.625638 2 2 3
0.0412203 0.625725 0.625725 2 2 3
0.0412244 0.625811 0.625811 2 2 3
0.0412285 0.625897 0.625897 2 2 3
0.0412326 0.625983 0.625983 2 2 3
0.0412368 0.62607 0.62607 2 2 3
0.0412409 0.626156 0.626156 2 2 3
0.0412451 0.626243 0.626243 2 2 3
0.0412492 0.62633 0.62633 2 2 3
0.0412534 0.626417 0.626417 2 2 3
0.0412576 0.626504 0.626504 2 2 3
0.0412618 0.626591 0.626591 2 2 3
0.041266 0.626679 0.626679 2 2 3
0.0412702 0.626766 0.626766 2 2 3
0.0412744 0.626854 0.626854 2 2 3
0.0412786 0.626941 0.626941 2 2 3
0.0412828 0.627029 0.627029 2 2 3
0.041287 0.627117 0.627117 2 2 3
0.0412913 0.627205 0.627205 2 2 3
0.0412955 0.627294 0.627294 2 2 3
0.0412997 0.627382 0.627382 2 2 3
0.041304 0.62747 0.62747 2 2 3
0.0413083 0.627559 0.627559 2 2 3
0.0413125 0.627648 0.627648 2 2 3
0.0413168 0.627737 0.627737 2 2 3
0.0413211 0.627826 0.627826 2 2 3
0.0413254 0.627915 0.627915 2 2 3
0.0413297 0.628004 0.628004 2 2 3
0.041334 0.628093 0.628093 2 2 3
0.0413383 0.628183 0.628183 2 2 3
0.0413427 0.628272 0.628272 2 2 3
0.041347 0.628362 0.628362 2 2 3
0.0413513 0.628452 0.628452 2 2 3
0.0413557 0.628542 0.628542 2 2 3
0.04136 0.628632 0.628632 2 2 3
0.0413644 0.628722 0.628722 2 2 3
0.0413688 0.628813 0.628813 2 2 3
0.0413732 0.628903 0.628903 2 2 3
0.0413776 0.628994 0.628994 2 2 3
0.0413819 0.629085 0.629085 2 2 3
0.0413864 0.629176 0.629176 2 2 3
0.0413908 0.629267 0.629267 2 2 3
0.0413952 0.629358 0.629358 2 2 3
0.0413996 0.629449 0.629449 2 2 3
0.041404 0.629541 0.629541 2 2 3
0.0414085 0.629632 0.629632 2 2 3
0.0414129 0.629724 0.629724 2 2 3
0.0414174 0.629816 0.629816 2 2 3
0.0414219 0.629908 0.629908 2 2 3
0.0414263 0.63 0.63 2 2 3
0.0414308 0.630092 0.630092 2 2 3
0.0414353 0.630184 0.630184 2 2 3
0.0414398 0.630277 0.630277 2 2 3
0.0414443 0.630369 0.630369 2 2 3
0.0414488 0.630462 0.630462 2 2 3
0.0414534 0.630555 0.630555 2 2 3
0.0414579 0.630648 0.630648 2 2 3
0.0414624 0.630741 0.630741 2 2 3
0.041467 0.630834 0.630834 2 2 3
0.0414715 0.630928 0.630928 2 2 3
0.0414761 0.631021 0.631021 2 2 3
0.0414807 0.631115 0.631115 2 2 3
0.0414853 0.631209 0.631209 2 2 3
0.0414898 0.631302 0.631302 2 2 3
0.0414944 0.631397 0.631397 2 2 3
0.041499 0.631491 0.631491 2 2 3
0.0415037 0.631585 0.631585 2 2 3
0.0415083 0.63168 0.63168 2 2 3
0.0415129 0.631774 0.631774 2 2 3
0.0415176 0.631869 0.631869 2 2 3
0.0415222 0.631964 0.631964 2 2 3
0.0415269 0.632059 0.632059 2 2 3
0.0415315 0.632154 0.632154 2 2 3
0.0415362 0.632249 0.632249 2 2 3
0.0415409 0.632345 0.632345 2 2 3
0.0415456 0.63244 0.63244 2 2 3
0.0415503 0.632536 0.632536 2 2 3
0.041555 0.632632 0.632632 2 2 3
0.0415597 0.632728 0.632728 2 2 3
0.0415644 0.632824 0.632824 2 2 3
0.0415692 0.63292 0.63292 2 2 3
0.0415739 0.633016 0.633016 2 2 3
0.0415786 0.633113 0.633113 2 2 3
0.0415834 0.633209 0.633209 2 2 3
0.0415882 0.633306 0.633306 2 2 3
0.0415929 0.633403 0.633403 2 2 3
0.0415977 0.6335 0.6335 2 2 3
0.0416025 0.633597 0.633597 2 2 3
0.0416073 0.633695 0.633695 2 2 3
0.0416121 0.633792 0.633792 2 2 3
0.041617 0.63389 0.63389 2 2 3
0.0416218 0.633988 0.633988 2 2 3
0.0416266 0.634086 0.634086 2 2 3
0.0416315 0.634184 0.634184 2 2 3
0.0416363 0.634282 0.634282 2 2 3
0.0416412 0.63438 0.63438 2 2 3
0.0416461 0.634479 0.634479 2 2 3
0.041651 0.634577 0.634577 2 2 3
0.0416558 0.634676 0.634676 2 2 3
0.0416607 0.634775 0.634775 2 2 3
0.0416657 0.634874 0.634874 2 2 3
0.0416706 0.634973 0.634973 2 2 3
0.0416755 0.635072 0.635072 2 2 3
0.0416804 0.635172 0.635172 2 2 3
0.0416854 0.635271 0.635271 2 2 3
0.0416903 0.635371 0.635371 2 2 3
0.0416953 0.635471 0.635471 2 2 3
0.0417003 0.635571 0.635571 2 2 3
0.0417053 0.635671 0.635671 2 2 3
0.0417103 0.635772 0.635772 2 2 3
0.0417153 0.635872 0.635872 2 2 3
0.0417203 0.635973 0.635973 2 2 3
0.0417253 0.636073 0.636073 2 2 3
0.0417303 0.636174 0.636174 2 2 3
0.0417354 0.636275 0.636275 2 2 3
0.0417404 0.636377 0.636377 2 2 3
0.0417455 0.636478 0.636478 2 2 3
0.0417505 0.636579 0.636579 2 2 3
0.0417556 0.636681 0.636681 2 2 3
0.0417607 0.636783 0.636783 2 2 3
0.0417658 0.636885 0.636885 2 2 3
0.0417709 0.636987 0.636987 2 2 3
0.041776 0.637089 0.637089 2 2 3
0.0417811 0.637191 0.637191 2 2 3
0.0417863 0.637294 0.637294 2 2 3
0.0417914 0.637397 0.637397 2 2 3
0.0417966 0.637499 0.637499 2 2 3
0.0418017 0.637602 0.637602 2 2 3
0.0418069 0.637705 0.637705 2 2 3
0.0418121 0.637809 0.637809 2 2 3
0.0418173 0.637912 0.637912 2 2 3
0.0418225 0.638016 0.638016 2 2 3
0.0418277 0.638119 0.638119 2 2 3
0.0418329 0.638223 0.638223 2 2 3
0.0418381 0.638327 0.638327 2 2 3
0.0418434 0.638431 0.638431 2 2 3
0.0418486 0.638536 0.638536 2 2 3
0.0418539 0.63864 0.63864 2 2 3
0.0418592 0.638745 0.638745 2 2 3
0.0418645 0.638849 0.638849 2 2 3
0.0418697 0.638954 0.638954 2 2 3
0.041875 0.639059 0.639059 2 2 3
0.0418804 0.639165 0.639165 2 2 3
0.0418857 0.63927 0.63927 2 2 3
0.041891 0.639375 0.639375 2 2 3
0.0418964 0.639481 0.639481 2 2 3
0.0419017 0.639587 0.639587 2 2 3
0.0419071 0.639693 0.639693 2 2 3
0.0419124 0.639799 0.639799 2 2 3
0.0419178 0.639905 0.639905 2 2 3
0.0419232 0.640012 0.640012 2 2 3
0.0419286 0.640118 0.640118 2 2 3
0.041934 0.640225 0.640225 2 2 3
0.0419394 0.640332 0.640332 2 2 3
0.0419449 0.640439 0.640439 2 2 3
0.0419503 0.640546 0.640546 2 2 3
0.0419558 0.640654 0.640654 2 2 3
0.0419612 0.640761 0.640761 2 2 3
0.0419667 0.640869 0.640869 2 2 3
0.0419722 0.640977 0.640977 2 2 3
0.0419777 0.641085 0.641085 2 2 3
0.0419832 0.641193 0.641193 2 2 3
0.0419887 0.641301 0.641301 2 2 3
0.0419943 0.641409 0.641409 2 2 3
0.0419998 0.641518 0.641518 2 2 3
0.0420053 0.641627 0.641627 2 2 3
0.0420109 0.641736 0.641736 2 2 3
0.0420165 0.641845 0.641845 2 2 3
0.0420221 0.641954 0.641954 2 2 3
0.0420276 0.642063 0.642063 2 2 3
0.0420332 0.642173 0.642173 2 2 3
0.0420389 0.642283 0.642283 2 2 3
0.0420445 0.642393 0.642393 2 2 3
0.0420501 0.642503 0.642503 2 2 3
0.0420558 0.642613 0.642613 2 2 3
0.0420614 0.642723 0.642723 2 2 3
0.0420671 0.642834 0.642834 2 2 3
0.0420728 0.642944 0.642944 2 2 3
0.0420785 0.643055 0.643055 2 2 3
0.0420842 0.643166 0.643166 2 2 3
0.0420899 0.643277 0.643277 2 2 3
0.0420956 0.643389 0.643389 2 2 3
0.0421013 0.6435 0.6435 2 2 3
0.0421071 0.643612 0.643612 2 2 3
0.0421128 0.643724 0.643724 2 2 3
0.0421186 0.643836 0.643836 2 2 3
0.0421244 0.643948 0.643948 2 2 3
0.0421302 0.64406 0.64406 2 2 3
0.042136 0.644172 0.644172 2 2 3
0.0421418 0.644285 0.644285 2 2 3
0.0421476 0.644398 0.644398 2 2 3
0.0421535 0.644511 0.644511 2 2 3
0.0421593 0.644624 0.644624 2 2 3
0.0421652 0.644737 0.644737 2 2 3
0.042171 0.644851 0.644851 2 2 3
0.0421769 0.644964 0.644964 2 2 3
0.0421828 0.645078 0.645078 2 2 3
0.0421887 0.645192 0.645192 2 2 3
0.0421946 0.645306 0.645306 2 2 3
0.0422006 0.64542 0.64542 2 2 3
0.0422065 0.645535 0.645535 2 2 3
0.0422124 0.645649 0.645649 2 2 3
0.0422184 0.645764 0.645764 2 2 3
0.0422244 0.645879 0.645879 2 2 3
0.0422304 0.645994 0.645994 2 2 3
0.0422364 0.64611 0.64611 2 2 3
0.0422424 0.646225 0.646225 2 2 3
0.0422484 0.646341 0.646341 2 2 3
0.0422544 0.646456 0.646456 2 2 3
0.0422605 0.646572 0.646572 2 2 3
0.0422665 0.646688 0.646688 2 2 3
0.0422726 0.646805 0.646805 2 2 3
0.0422787 0.646921 0.646921 2 2 3
0.0422848 0.647038 0.647038 2 2 3
0.0422909 0.647155 0.647155 2 2 3
0.042297 0.647272 0.647272 2 2 3
0.0423032 0.647389 0.647389 2 2 3
0.0423093 0.647506 0.647506 2 2 3
0.0423155 0.647624 0.647624 2 2 3
0.0423216 0.647741 0.647741 2 2 3
0.0423278 0.647859 0.647859 2 2 3
0.042334 0.647977 0.647977 2 2 3
0.0423402 0.648095 0.648095 2 2 3
0.0423464 0.648214 0.648214 2 2 3
0.0423527 0.648332 0.648332 2 2 3
0.0423589 0.648451 0.648451 2 2 3
0.0423651 0.64857 0.64857 2 2 3
0.0423714 0.648689 0.648689 2 2 3
0.0423777 0.648808 0.648808 2 2 3
0.042384 0.648927 0.648927 2 2 3
0.0423903 0.649047 0.649047 2 2 3
0.0423966 0.649167 0.649167 2 2 3
0.0424029 0.649287 0.649287 2 2 3
0.0424093 0.649407 0.649407 2 2 3
0.0424156 0.649527 0.649527 2 2 3
0.042422 0.649648 0.649648 2 2 3
0.0424284 0.649768 0.649768 2 2 3
0.0424348 0.649889 0.649889 2 2 3
0.0424412 0.65001 0.65001 2 2 3
0.0424476 0.650131 0.650131 2 2 3
0.0424541 0.650252 0.650252 2 2 3
0.0424605 0.650374 0.650374 2 2 3
0.042467 0.650496 0.650496 2 2 3
0.0424734 0.650618 0.650618 2 2 3
0.0424799 0.65074 0.65074 2 2 3
0.0424864 0.650862 0.650862 2 2 3
0.0424929 0.650984 0.650984 2 2 3
0.0424995 0.651107 0.651107 2 2 3
0.042506 0.65123 0.65123 2 2 3
0.0425126 0.651353 0.651353 2 2 3
0.0425191 0.651476 0.651476 2 2 3
0.0425257 0.651599 0.651599 2 2 3
0.0425323 0.651723 0.651723 2 2 3
0.0425389 0.651846 0.651846 2 2 3
0.0425455 0.65197 0.65197 2 2 3
0.0425522 0.652094 0.652094 2 2 3
0.0425588 0.652218 0.652218 2 2 3
0.0425655 0.652343 0.652343 2 2 3
0.0425722 0.652468 0.652468 2 2 3
0.0425788 0.652592 0.652592 2 2 3
0.0425855 0.652717 0.652717 2 2 3
0.0425923 0.652842 0.652842 2 2 3
0.042599 0.652968 0.652968 2 2 3
0.0426057 0.653093 0.653093 2 2 3
0.0426125 0.653219 0.653219 2 2 3
0.0426193 0.653345 0.653345 2 2 3
0.0426261 0.653471 0.653471 2 2 3
0.0426329 0.653597 0.653597 2 2 3
0.0426397 0.653724 0.653724 2 2 3
0.0426465 0.65385 0.65385 2 2 3
0.0426534 0.653977 0.653977 2 2 3
0.0426602 0.654104 0.654104 2 2 3
0.0426671 0.654231 0.654231 2 2 3
0.042674 0.654359 0.654359 2 2 3
0.0426809 0.654486 0.654486 2 2 3
0.0426878 0.654614 0.654614 2 2 3
0.0426947 0.654742 0.654742 2 2 3
0.0427017 0.65487 0.65487 2 2 3
0.0427086 0.654999 0.654999 2 2 3
0.0427156 0.655127 0.655127 2 2 3
0.0427226 0.655256 0.655256 2 2 3
0.0427296 0.655385 0.655385 2 2 3
0.0427366 0.655514 0.655514 2 2 3
0.0427436 0.655643 0.655643 2 2 3
0.0427507 0.655773 0.655773 2 2 3
0.0427577 0.655903 0.655903 2 2 3
0.0427648 0.656032 0.656032 2 2 3
0.0427719 0.656163 0.656163 2 2 3
0.042779 0.656293 0.656293 2 2 3
0.0427861 0.656423 0.656423 2 2 3
0.0427933 0.656554 0.656554 2 2 3
0.0428004 0.656685 0.656685 2 2 3
0.0428076 0.656816 0.656816 2 2 3
0.0428148 0.656947 0.656947 2 2 3
0.042822 0.657079 0.657079 2 2 3
0.0428292 0.65721 0.65721 2 2 3
0.0428364 0.657342 0.657342 2 2 3
0.0428437 0.657474 0.657474 2 2 3
0.0428509 0.657606 0.657606 2 2 3
0.0428582 0.657739 0.657739 2 2 3
0.0428655 0.657871 0.657871 2 2 3
0.0428728 0.658004 0.658004 2 2 3
0.0428801 0.658137 0.658137 2 2 3
0.0428875 0.658271 0.658271 2 2 3
0.0428948 0.658404 0.658404 2 2 3
0.0429022 0.658538 0.658538 2 2 3
0.0429096 0.658671 0.658671 2 2 3
0.042917 0.658805 0.658805 2 2 3
0.0429244 0.65894 0.65894 2 2 3
0.0429318 0.659074 0.659074 2 2 3
0.0429393 0.659209 0.659209 2 2 3
0.0429468 0.659344 0.659344 2 2 3
0.0429542 0.659479 0.659479 2 2 3
0.0429617 0.659614 0.659614 2 2 3
0.0429692 0.659749 0.659749 2 2 3
0.0429768 0.659885 0.659885 2 2 3
0.0429843 0.660021 0.660021 2 2 3
0.0429919 0.660157 0.660157 2 2 3
0.0429995 0.660293 0.660293 2 2 3
0.0430071 0.66043 0.66043 2 2 3
0.0430147 0.660566 0.660566 2 2 3
0.0430223 0.660703 0.660703 2 2 3
0.04303 0.66084 0.66084 2 2 3
0.0430376 0.660978 0.660978 2 2 3
0.0430453 0.661115 0.661115 2 2 3
0.043053 0.661253 0.661253 2 2 3
0.0430607 0.661391 0.661391 2 2 3
0.0430684 0.661529 0.661529 2 2 3
0.0430762 0.661667 0.661667 2 2 3
0.043084 0.661806 0.661806 2 2 3
0.0430917 0.661945 0.661945 2 2 3
0.0430995 0.662084 0.662084 2 2 3
0.0431074 0.662223 0.662223 2 2 3
0.0431152 0.662362 0.662362 2 2 3
0.043123 0.662502 0.662502 2 2 3
0.0431309 0.662642 0.662642 2 2 3
0.0431388 0.662782 0.662782 2 2 3
0.0431467 0.662922 0.662922 2 2 3
0.0431546 0.663062 0.663062 2 2 3
0.0431626 0.663203 0.663203 2 2 3
0.0431705 0.663344 0.663344 2 2 3
0.0431785 0.663485 0.663485 2 2 3
0.0431865 0.663626 0.663626 2 2 3
0.0431945 0.663768 0.663768 2 2 3
0.0432025 0.66391 0.66391 2 2 3
0.0432106 0.664052 0.664052 2 2 3
0.0432186 0.664194 0.664194 2 2 3
0.0432267 0.664336 0.664336 2 2 3
0.0432348 0.664479 0.664479 2 2 3
0.0432429 0.664622 0.664622 2 2 3
0.0432511 0.664765 0.664765 2 2 3
0.0432592 0.664908 0.664908 2 2 3
0.0432674 0.665051 0.665051 2 2 3
0.0432756 0.665195 0.665195 2 2 3
0.0432838 0.665339 0.665339 2 2 3
0.043292 0.665483 0.665483 2 2 3
0.0433003 0.665628 0.665628 2 2 3
0.0433086 0.665772 0.665772 2 2 3
0.0433169 0.665917 0.665917 2 2 3
0.0433252 0.666062 0.666062 2 2 3
0.0433335 0.666207 0.666207 2 2 3
0.0433418 0.666353 0.666353 2 2 3
0.0433502 0.666499 0.666499 2 2 3
0.0433586 0.666645 0.666645 2 2 3
0.043367 0.666791 0.666791 2 2 3
0.0433754 0.666937 0.666937 2 2 3
0.0433838 0.667084 0.667084 2 2 3
0.0433923 0.667231 0.667231 2 2 3
0.0434008 0.667378 0.667378 2 2 3
0.0434093 0.667525 0.667525 2 2 3
0.0434178 0.667673 0.667673 2 2 3
0.0434263 0.66782 0.66782 2 2 3
0.0434349 0.667968 0.667968 2 2 3
0.0434435 0.668117 0.668117 2 2 3
0.0434521 0.668265 0.668265 2 2 3
0.0434607 0.668414 0.668414 2 2 3
0.0434693 0.668563 0.668563 2 2 3
0.043478 0.668712 0.668712 2 2 3
0.0434866 0.668861 0.668861 2 2 3
0.0434953 0.669011 0.669011 2 2 3
0.0435041 0.669161 0.669161 2 2 3
0.0435128 0.669311 0.669311 2 2 3
0.0435216 0.669461 0.669461 2 2 3
0.0435303 0.669612 0.669612 2 2 3
0.0435391 0.669762 0.669762 2 2 3
0.043548 0.669913 0.669913 2 2 3
0.0435568 0.670065 0.670065 2 2 3
0.0435657 0.670216 0.670216 2 2 3
0.0435746 0.670368 0.670368 2 2 3
0.0435835 0.67052 0.67052 2 2 3
0.0435924 0.670672 0.670672 2 2 3
0.0436013 0.670825 0.670825 2 2 3
0.0436103 0.670977 0.670977 2 2 3
0.0436193 0.67113 0.67113 2 2 3
0.0436283 0.671283 0.671283 2 2 3
0.0436373 0.671437 0.671437 2 2 3
0.0436464 0.671591 0.671591 2 2 3
0.0436555 0.671745 0.671745 2 2 3
0.0436646 0.671899 0.671899 2 2 3
0.0436737 0.672053 0.672053 2 2 3
0.0436828 0.672208 0.672208 2 2 3
0.043692 0.672363 0.672363 2 2 3
0.0437012 0.672518 0.672518 2 2 3
0.0437104 0.672673 0.672673 2 2 3
0.0437196 0.672829 0.672829 2 2 3
0.0437289 0.672985 0.672985 2 2 3
0.0437382 0.673141 0.673141 2 2 3
0.0437475 0.673297 0.673297 2 2 3
0.0437568 0.673454 0.673454 2 2 3
0.0437661 0.673611 0.673611 2 2 3
0.0437755 0.673768 0.673768 2 2 3
0.0437849 0.673925 0.673925 2 2 3
0.0437943 0.674083 0.674083 2 2 3
0.0438037 0.674241 0.674241 2 2 3
0.0438132 0.674399 0.674399 2 2 3
0.0438227 0.674557 0.674557 2 2 3
0.0438322 0.674716 0.674716 2 2 3
0.0438417 0.674875 0.674875 2 2 3
0.0438513 0.675034 0.675034 2 2 3
0.0438608 0.675194 0.675194 2 2 3
0.0438704 0.675353 0.675353 2 2 3
0.0438801 0.675513 0.675513 2 2 3
0.0438897 0.675673 0.675673 2 2 3
0.0438994 0.675834 0.675834 2 2 3
0.0439091 0.675995 0.675995 2 2 3
0.0439188 0.676156 0.676156 2 2 3
0.0439285 0.676317 0.676317 2 2 3
0.0439383 0.676478 0.676478 2 2 3
0.0439481 0.67664 0.67664 2 2 3
0.0439579 0.676802 0.676802 2 2 3
0.0439678 0.676965 0.676965 2 2 3
0.0439776 0.677127 0.677127 2 2 3
0.0439875 0.67729 0.67729 2 2 3
0.0439975 0.677453 0.677453 2 2 3
0.0440074 0.677617 0.677617 2 2 3
0.0440174 0.67778 0.67778 2 2 3
0.0440274 0.677944 0.677944 2 2 3
0.0440374 0.678108 0.678108 2 2 3
0.0440474 0.678273 0.678273 2 2 3
0.0440575 0.678438 0.678438 2 2 3
0.0440676 0.678603 0.678603 2 2 3
0.0440777 0.678768 0.678768 2 2 3
0.0440879 0.678933 0.678933 2 2 3
0.044098 0.679099 0.679099 2 2 3
0.0441082 0.679265 0.679265 2 2 3
0.0441185 0.679432 0.679432 2 2 3
0.0441287 0.679598 0.679598 2 2 3
0.044139 0.679765 0.679765 2 2 3
0.0441493 0.679933 0.679933 2 2 3
0.0441596 0.6801 0.6801 2 2 3
0.04417 0.680268 0.680268 2 2 3
0.0441804 0.680436 0.680436 2 2 3
0.0441908 0.680604 0.680604 2 2 3
0.0442012 0.680773 0.680773 2 2 3
0.0442117 0.680942 0.680942 2 2 3
0.0442222 0.681111 0.681111 2 2 3
0.0442327 0.681281 0.681281 2 2 3
0.0442433 0.681451 0.681451 2 2 3
0.0442539 0.681621 0.681621 2 2 3
0.0442645 0.681791 0.681791 2 2 3
0.0442751 0.681962 0.681962 2 2 3
0.0442858 0.682133 0.682133 2 2 3
0.0442965 0.682304 0.682304 2 2 3
0.0443072 0.682475 0.682475 2 2 3
0.0443179 0.682647 0.682647 2 2 3
0.0443287 0.682819 0.682819 2 2 3
0.0443395 0.682992 0.682992 2 2 3
0.0443504 0.683165 0.683165 2 2 3
0.0443612 0.683338 0.683338 2 2 3
0.0443721 0.683511 0.683511 2 2 3
0.044383 0.683685 0.683685 2 2 3
0.044394 0.683859 0.683859 2 2 3
0.044405 0.684033 0.684033 2 2 3
0.044416 0.684207 0.684207 2 2 3
0.044427 0.684382 0.684382 2 2 3
0.0444381 0.684557 0.684557 2 2 3
0.0444492 0.684733 0.684733 2 2 3
0.0444604 0.684909 0.684909 2 2 3
0.0444715 0.685085 0.685085 2 2 3
0.0444827 0.685261 0.685261 2 2 3
0.0444939 0.685438 0.685438 2 2 3
0.0445052 0.685615 0.685615 2 2 3
0.0445165 0.685792 0.685792 2 2 3
0.0445278 0.68597 0.68597 2 2 3
0.0445392 0.686148 0.686148 2 2 3
0.0445505 0.686326 0.686326 2 2 3
0.044562 0.686505 0.686505 2 2 3
0.0445734 0.686683 0.686683 2 2 3
0.0445849 0.686863 0.686863 2 2 3
0.0445964 0.687042 0.687042 2 2 3
0.0446079 0.687222 0.687222 2 2 3
0.0446195 0.687402 0.687402 2 2 3
0.0446311 0.687583 0.687583 2 2 3
0.0446428 0.687764 0.687764 2 2 3
0.0446544 0.687945 0.687945 2 2 3
0.0446661 0.688126 0.688126 2 2 3
0.0446779 0.688308 0.688308 2 2 3
0.0446897 0.68849 0.68849 2 2 3
0.0447015 0.688673 0.688673 2 2 3
0.0447133 0.688856 0.688856 2 2 3
0.0447252 0.689039 0.689039 2 2 3
0.0447371 0.689222 0.689222 2 2 3
0.044749 0.689406 0.689406 2 2 3
0.044761 0.68959 0.68959 2 2 3
0.044773 0.689775 0.689775 2 2 3
0.0447851 0.68996 0.68996 2 2 3
0.0447972 0.690145 0.690145 2 2 3
0.0448093 0.690331 0.690331 2 2 3
0.0448214 0.690517 0.690517 2 2 3
0.0448336 0.690703 0.690703 2 2 3
0.0448459 0.690889 0.690889 2 2 3
0.0448581 0.691076 0.691076 2 2 3
0.0448704 0.691264 0.691264 2 2 3
0.0448827 0.691451 0.691451 2 2 3
0.0448951 0.691639 0.691639 2 2 3
0.0449075 0.691828 0.691828 2 2 3
0.04492 0.692017 0.692017 2 2 3
0.0449325 0.692206 0.692206 2 2 3
0.044945 0.692395 0.692395 2 2 3
0.0449575 0.692585 0.692585 2 2 3
0.0449701 0.692775 0.692775 2 2 3
0.0449828 0.692966 0.692966 2 2 3
0.0449954 0.693157 0.693157 2 2 3
0.0450081 0.693348 0.693348 2 2 3
0.0450209 0.69354 0.69354 2 2 3
0.0450337 0.693732 0.693732 2 2 3
0.0450465 0.693924 0.693924 2 2 3
0.0450593 0.694117 0.694117 2 2 3
0.0450723 0.69431 0.69431 2 2 3
0.0450852 0.694503 0.694503 2 2 3
0.0450982 0.694697 0.694697 2 2 3
0.0451112 0.694892 0.694892 2 2 3
0.0451243 0.695086 0.695086 2 2 3
0.0451374 0.695281 0.695281 2 2 3
0.0451505 0.695477 0.695477 2 2 3
0.0451637 0.695673 0.695673 2 2 3
0.0451769 0.695869 0.695869 2 2 3
0.0451902 0.696066 0.696066 2 2 3
0.0452035 0.696263 0.696263 2 2 3
0.0452168 0.69646 0.69646 2 2 3
0.0452302 0.696658 0.696658 2 2 3
0.0452437 0.696856 0.696856 2 2 3
0.0452571 0.697055 0.697055 2 2 3
0.0452707 0.697254 0.697254 2 2 3
0.0452842 0.697453 0.697453 2 2 3
0.0452978 0.697653 0.697653 2 2 3
0.0453115 0.697854 0.697854 2 2 3
0.0453252 0.698054 0.698054 2 2 3
0.0453389 0.698255 0.698255 2 2 3
0.0453527 0.698457 0.698457 2 2 3
0.0453665 0.698659 0.698659 2 2 3
0.0453804 0.698861 0.698861 2 2 3
0.0453943 0.699064 0.699064 2 2 3
0.0454083 0.699267 0.699267 2 2 3
0.0454223 0.699471 0.699471 2 2 3
0.0454363 0.699675 0.699675 2 2 3
0.0454504 0.69988 0.69988 2 2 3
0.0454646 0.700084 0.700084 2 2 3
0.0454788 0.70029 0.70029 2 2 3
0.045493 0.700496 0.700496 2 2 3
0.0455073 0.700702 0.700702 2 2 3
0.0455216 0.700909 0.700909 2 2 3
0.045536 0.701116 0.701116 2 2 3
0.0455505 0.701323 0.701323 2 2 3
0.0455649 0.701532 0.701532 2 2 3
0.0455795 0.70174 0.70174 2 2 3
0.045594 0.701949 0.701949 2 2 3
0.0456087 0.702159 0.702159 2 2 3
0.0456233 0.702368 0.702368 2 2 3
0.0456381 0.702579 0.702579 2 2 3
0.0456529 0.70279 0.70279 2 2 3
0.0456677 0.703001 0.703001 2 2 3
0.0456826 0.703213 0.703213 2 2 3
0.0456975 0.703425 0.703425 2 2 3
0.0457125 0.703638 0.703638 2 2 3
0.0457275 0.703851 0.703851 2 2 3
0.0457426 0.704065 0.704065 2 2 3
0.0457577 0.704279 0.704279 2 2 3
0.0457729 0.704494 0.704494 2 2 3
0.0457882 0.704709 0.704709 2 2 3
0.0458035 0.704924 0.704924 2 2 3
0.0458188 0.705141 0.705141 2 2 3
0.0458342 0.705357 0.705357 2 2 3
0.0458497 0.705574 0.705574 2 2 3
0.0458652 0.705792 0.705792 2 2 3
0.0458808 0.70601 0.70601 2 2 3
0.0458964 0.706229 0.706229 2 2 3
0.0459121 0.706448 0.706448 2 2 3
0.0459278 0.706668 0.706668 2 2 3
0.0459436 0.706888 0.706888 2 2 3
0.0459595 0.707109 0.707109 2 2 3
0.0459754 0.70733 0.70733 2 2 3
0.0459914 0.707552 0.707552 2 2 3
0.0460074 0.707775 0.707775 2 2 3
0.0460235 0.707998 0.707998 2 2 3
0.0460396 0.708221 0.708221 2 2 3
0.0460558 0.708445 0.708445 2 2 3
0.0460721 0.70867 0.70867 2 2 3
0.0460884 0.708895 0.708895 2 2 3
0.0461048 0.70912 0.70912 2 2 3
0.0461213 0.709347 0.709347 2 2 3
0.0461378 0.709573 0.709573 2 2 3
0.0461543 0.709801 0.709801 2 2 3
0.046171 0.710029 0.710029 2 2 3
0.0461877 0.710257 0.710257 2 2 3
0.0462044 0.710486 0.710486 2 2 3
0.0462213 0.710716 0.710716 2 2 3
0.0462382 0.710946 0.710946 2 2 3
0.0462551 0.711177 0.711177 2 2 3
0.0462721 0.711409 0.711409 2 2 3
0.0462892 0.711641 0.711641 2 2 3
0.0463064 0.711874 0.711874 2 2 3
0.0463236 0.712107 0.712107 2 2 3
0.0463409 0.712341 0.712341 2 2 3
0.0463582 0.712575 0.712575 2 2 3
0.0463757 0.71281 0.71281 2 2 3
0.0463931 0.713046 0.713046 2 2 3
0.0464107 0.713282 0.713282 2 2 3
0.0464283 0.713519 0.713519 2 2 3
0.046446 0.713757 0.713757 2 2 3
0.0464638 0.713995 0.713995 2 2 3
0.0464816 0.714234 0.714234 2 2 3
0.0464996 0.714474 0.714474 2 2 3
0.0465175 0.714714 0.714714 2 2 3
0.0465356 0.714955 0.714955 2 2 3
0.0465537 0.715197 0.715197 2 2 3
0.0465719 0.715439 0.715439 2 2 3
0.0465902 0.715682 0.715682 2 2 3
0.0466086 0.715926 0.715926 2 2 3
0.046627 0.71617 0.71617 2 2 3
0.0466455 0.716415 0.716415 2 2 3
0.0466641 0.716661 0.716661 2 2 3
0.0466828 0.716907 0.716907 2 2 3
0.0467015 0.717154 0.717154 2 2 3
0.0467203 0.717402 0.717402 2 2 3
0.0467392 0.71765 0.71765 2 2 3
0.0467582 0.7179 0.7179 2 2 3
0.0467772 0.71815 0.71815 2 2 3
0.0467964 0.7184 0.7184 2 2 3
0.0468156 0.718652 0.718652 2 2 3
0.0468349 0.718904 0.718904 2 2 3
0.0468543 0.719157 0.719157 2 2 3
0.0468738 0.719411 0.719411 2 2 3
0.0468933 0.719665 0.719665 2 2 3
0.046913 0.71992 0.71992 2 2 3
0.0469327 0.720176 0.720176 2 2 3
0.0469525 0.720433 0.720433 2 2 3
0.0469724 0.720691 0.720691 2 2 3
0.0469924 0.720949 0.720949 2 2 3
0.0470124 0.721208 0.721208 2 2 3
0.0470326 0.721468 0.721468 2 2 3
0.0470529 0.721729 0.721729 2 2 3
0.0470732 0.721991 0.721991 2 2 3
0.0470936 0.722253 0.722253 2 2 3
0.0471142 0.722517 0.722517 2 2 3
0.0471348 0.722781 0.722781 2 2 3
0.0471555 0.723046 0.723046 2 2 3
0.0471763 0.723312 0.723312 2 2 3
0.0471972 0.723578 0.723578 2 2 3
0.0472182 0.723846 0.723846 2 2 3
0.0472393 0.724114 0.724114 2 2 3
0.0472605 0.724384 0.724384 2 2 3
0.0472818 0.724654 0.724654 2 2 3
0.0473032 0.724925 0.724925 2 2 3
0.0473246 0.725197 0.725197 2 2 3
0.0473462 0.72547 0.72547 2 2 3
0.0473679 0.725744 0.725744 2 2 3
0.0473897 0.726019 0.726019 2 2 3
0.0474116 0.726294 0.726294 2 2 3
0.0474336 0.726571 0.726571 2 2 3
0.0474557 0.726849 0.726849 2 2 3
0.047478 0.727127 0.727127 2 2 3
0.0475003 0.727407 0.727407 2 2 3
0.0475227 0.727687 0.727687 2 2 3
0.0475452 0.727969 0.727969 2 2 3
0.0475679 0.728251 0.728251 2 2 3
0.0475907 0.728535 0.728535 2 2 3
0.0476135 0.72882 0.72882 2 2 3
0.0476365 0.729105 0.729105 2 2 3
0.0476596 0.729392 0.729392 2 2 3
0.0476828 0.729679 0.729679 2 2 3
0.0477062 0.729968 0.729968 2 2 3
0.0477296 0.730258 0.730258 2 2 3
0.0477532 0.730549 0.730549 2 2 3
0.0477769 0.730841 0.730841 2 2 3
0.0478007 0.731134 0.731134 2 2 3
0.0478246 0.731428 0.731428 2 2 3
0.0478486 0.731723 0.731723 2 2 3
0.0478728 0.732019 0.732019 2 2 3
0.0478971 0.732317 0.732317 2 2 3
0.0479215 0.732616 0.732616 2 2 3
0.0479461 0.732915 0.732915 2 2 3
0.0479708 0.733216 0.733216 2 2 3
0.0479956 0.733518 0.733518 2 2 3
0.0480205 0.733822 0.733822 2 2 3
0.0480456 0.734126 0.734126 2 2 3
0.0480708 0.734432 0.734432 2 2 3
0.0480961 0.734739 0.734739 2 2 3
0.0481216 0.735047 0.735047 2 2 3
0.0481472 0.735357 0.735357 2 2 3
0.048173 0.735667 0.735667 2 2 3
0.0481988 0.735979 0.735979 2 2 3
0.0482249 0.736292 0.736292 2 2 3
0.048251 0.736607 0.736607 2 2 3
0.0482774 0.736923 0.736923 2 2 3
0.0483038 0.73724 0.73724 2 2 3
0.0483304 0.737558 0.737558 2 2 3
0.0483572 0.737878 0.737878 2 2 3
0.0483841 0.738199 0.738199 2 2 3
0.0484111 0.738522 0.738522 2 2 3
0.0484384 0.738846 0.738846 2 2 3
0.0484657 0.739171 0.739171 2 2 3
0.0484932 0.739498 0.739498 2 2 3
0.0485209 0.739826 0.739826 2 2 3
0.0485487 0.740156 0.740156 2 2 3
0.0485767 0.740487 0.740487 2 2 3
0.0486049 0.74082 0.74082 2 2 3
0.0486332 0.741154 0.741154 2 2 3
0.0486617 0.741489 0.741489 2 2 3
0.0486903 0.741826 0.741826 2 2 3
0.0487191 0.742165 0.742165 2 2 3
0.0487481 0.742505 0.742505 2 2 3
0.0487773 0.742847 0.742847 2 2 3
0.0488066 0.74319 0.74319 2 2 3
0.0488361 0.743535 0.743535 2 2 3
0.0488658 0.743882 0.743882 2 2 3
0.0488956 0.74423 0.74423 2 2 3
0.0489257 0.74458 0.74458 2 2 3
0.0489559 0.744931 0.744931 2 2 3
0.0489863 0.745284 0.745284 2 2 3
0.0490169 0.745639 0.745639 2 2 3
0.0490477 0.745996 0.745996 2 2 3
0.0490786 0.746354 0.746354 2 2 3
0.0491098 0.746714 0.746714 2 2 3
0.0491412 0.747076 0.747076 2 2 3
0.0491727 0.74744 0.74744 2 2 3
0.0492045 0.747805 0.747805 2 2 3
0.0492364 0.748173 0.748173 2 2 3
0.0492686 0.748542 0.748542 2 2 3
0.0493009 0.748913 0.748913 2 2 3
0.0493335 0.749286 0.749286 2 2 3
0.0493663 0.749661 0.749661 2 2 3
0.0493992 0.750037 0.750037 2 2 3
0.0494324 0.750416 0.750416 2 2 3
0.0494658 0.750797 0.750797 2 2 3
0.0494995 0.75118 0.75118 2 2 3
0.0495333 0.751565 0.751565 2 2 3
0.0495674 0.751951 0.751951 2 2 3
0.0496017 0.75234 0.75234 2 2 3
0.0496362 0.752731 0.752731 2 2 3
0.049671 0.753124 0.753124 2 2 3
0.049706 0.75352 0.75352 2 2 3
0.0497412 0.753917 0.753917 2 2 3
0.0497767 0.754317 0.754317 2 2 3
0.0498124 0.754718 0.754718 2 2 3
0.0498483 0.755122 0.755122 2 2 3
0.0498845 0.755529 0.755529 2 2 3
0.049921 0.755937 0.755937 2 2 3
0.0499577 0.756348 0.756348 2 2 3
0.0499946 0.756762 0.756762 2 2 3
0.0500318 0.757177 0.757177 2 2 3
0.0500693 0.757595 0.757595 2 2 3
0.050107 0.758016 0.758016 2 2 3
0.050145 0.758439 0.758439 2 2 3
0.0501833 0.758864 0.758864 2 2 3
0.0502218 0.759292 0.759292 2 2 3
0.0502606 0.759722 0.759722 2 2 3
0.0502997 0.760156 0.760156 2 2 3
0.0503391 0.760591 0.760591 2 2 3
0.0503787 0.761029 0.761029 2 2 3
0.0504187 0.76147 0.76147 2 2 3
0.0504589 0.761914 0.761914 2 2 3
0.0504995 0.76236 0.76236 2 2 3
0.0505403 0.762809 0.762809 2 2 3
0.0505814 0.763261 0.763261 2 2 3
0.0506229 0.763716 0.763716 2 2 3
0.0506646 0.764174 0.764174 2 2 3
0.0507067 0.764634 0.764634 2 2 3
0.0507491 0.765098 0.765098 2 2 3
0.0507918 0.765564 0.765564 2 2 3
0.0508348 0.766033 0.766033 2 2 3
0.0508782 0.766506 0.766506 2 2 3
0.0509219 0.766981 0.766981 2 2 3
0.0509659 0.76746 0.76746 2 2 3
0.0510103 0.767942 0.767942 2 2 3
0.051055 0.768427 0.768427 2 2 3
0.0511 0.768915 0.768915 2 2 3
0.0511455 0.769406 0.769406 2 2 3
0.0511912 0.769901 0.769901 2 2 3
0.0512374 0.770399 0.770399 2 2 3
0.0512839 0.770901 0.770901 2 2 3
0.0513307 0.771406 0.771406 2 2 3
0.051378 0.771914 0.771914 2 2 3
0.0514256 0.772426 0.772426 2 2 3
0.0514736 0.772942 0.772942 2 2 3
0.051522 0.773461 0.773461 2 2 3
0.0515708 0.773984 0.773984 2 2 3
0.05162 0.77451 0.77451 2 2 3
0.0516696 0.775041 0.775041 2 2 3
0.0517196 0.775575 0.775575 2 2 3
0.0517701 0.776113 0.776113 2 2 3
0.0518209 0.776654 0.776654 2 2 3
0.0518722 0.7772 0.7772 2 2 3
0.0519239 0.77775 0.77775 2 2 3
0.051976 0.778304 0.778304 2 2 3
0.0520286 0.778861 0.778861 2 2 3
0.0520816 0.779424 0.779424 2 2 3
0.0521351 0.77999 0.77999 2 2 3
0.0521891 0.78056 0.78056 2 2 3
0.0522435 0.781135 0.781135 2 2 3
0.0522984 0.781714 0.781714 2 2 3
0.0523537 0.782298 0.782298 2 2 3
0.0524096 0.782886 0.782886 2 2 3
0.0524659 0.783479 0.783479 2 2 3
0.0525227 0.784076 0.784076 2 2 3
0.0525801 0.784678 0.784678 2 2 3
0.0526379 0.785285 0.785285 2 2 3
0.0526963 0.785896 0.785896 2 2 3
0.0527552 0.786513 0.786513 2 2 3
0.0528146 0.787134 0.787134 2 2 3
0.0528745 0.78776 0.78776 2 2 3
0.052935 0.788392 0.788392 2 2 3
0.0529961 0.789028 0.789028 2 2 3
0.0530577 0.78967 0.78967 2 2 3
0.0531199 0.790317 0.790317 2 2 3
0.0531827 0.790969 0.790969 2 2 3
0.053246 0.791627 0.791627 2 2 3
0.0533099 0.79229 0.79229 2 2 3
0.0533745 0.792959 0.792959 2 2 3
0.0534396 0.793633 0.793633 2 2 3
0.0535054 0.794313 0.794313 2 2 3
0.0535718 0.794999 0.794999 2 2 3
0.0536388 0.795691 0.795691 2 2 3
0.0537064 0.796389 0.796389 2 2 3
0.0537747 0.797093 0.797093 2 2 3
0.0538437 0.797802 0.797802 2 2 3
0.0539134 0.798519 0.798519 2 2 3
0.0539837 0.799241 0.799241 2 2 3
0.0540547 0.79997 0.79997 2 2 3
0.0541264 0.800705 0.800705 2 2 3
0.0541988 0.801447 0.801447 2 2 3
0.0542719 0.802195 0.802195 2 2 3
0.0543458 0.802951 0.802951 2 2 3
0.0544204 0.803713 0.803713 2 2 3
0.0544958 0.804482 0.804482 2 2 3
0.0545719 0.805258 0.805258 2 2 3
0.0546488 0.806041 0.806041 2 2 3
0.0547264 0.806832 0.806832 2 2 3
0.0548049 0.807629 0.807629 2 2 3
0.0548842 0.808435 0.808435 2 2 3
0.0549643 0.809248 0.809248 2 2 3
0.0550452 0.810068 0.810068 2 2 3
0.0551269 0.810897 0.810897 2 2 3
0.0552096 0.811733 0.811733 2 2 3
0.055293 0.812577 0.812577 2 2 3
0.0553774 0.81343 0.81343 2 2 3
0.0554627 0.81429 0.81429 2 2 3
0.0555488 0.815159 0.815159 2 2 3
0.0556359 0.816037 0.816037 2 2 3
0.0557239 0.816923 0.816923 2 2 3
0.0558129 0.817818 0.817818 2 2 3
0.0559028 0.818722 0.818722 2 2 3
0.0559937 0.819635 0.819635 2 2 3
0.0560856 0.820557 0.820557 2 2 3
0.0561785 0.821489 0.821489 2 2 3
0.0562725 0.822429 0.822429 2 2 3
0.0563674 0.82338 0.82338 2 2 3
0.0564634 0.82434 0.82434 2 2 3
0.0565616 0.82532 0.82532 2 2 3
0.0566598 0.8263 0.8263 2 2 3
0.0567591 0.82729 0.82729 2 2 3
0.0568595 0.828291 0.828291 2 2 3
0.0569611 0.829302 0.829302 2 2 3
0.0570638 0.830324 0.830324 2 2 3
0.0571677 0.831357 0.831357 2 2 3
0.0572728 0.832401 0.832401 2 2 3
0.0573791 0.833456 0.833456 2 2 3
0.0574867 0.834522 0.834522 2 2 3
0.0575955 0.8356 0.8356 2 2 3
0.0577055 0.836689 0.836689 2 2 3
0.0578169 0.837791 0.837791 2 2 3
0.0579296 0.838904 0.838904 2 2 3
0.0580436 0.84003 0.84003 2 2 3
0.0581589 0.841168 0.841168 2 2 3
0.0582757 0.842319 0.842319 2 2 3
0.0583939 0.843483 0.843483 2 2 3
0.0585134 0.844659 0.844659 2 2 3
0.0586345 0.845849 0.845849 2 2 3
0.058757 0.847053 0.847053 2 2 3
0.058881 0.84827 0.84827 2 2 3
0.0590065 0.849502 0.849502 2 2 3
0.0591335 0.850747 0.850747 2 2 3
0.0592622 0.852007 0.852007 2 2 3
0.0593924 0.853282 0.853282 2 2 3
0.0595243 0.854571 0.854571 2 2 3
0.0596578 0.855876 0.855876 2 2 3
0.059793 0.857196 0.857196 2 2 3
0.05993 0.858531 0.858531 2 2 3
0.0600686 0.859883 0.859883 2 2 3
0.0602091 0.86125 0.86125 2 2 3
0.0603513 0.862635 0.862635 2 2 3
0.0604954 0.864035 0.864035 2 2 3
0.0606413 0.865453 0.865453 2 2 3
0.0607892 0.866888 0.866888 2 2 3
0.060939 0.868341 0.868341 2 2 3
0.0610907 0.869812 0.869812 2 2 3
0.0612444 0.871301 0.871301 2 2 3
0.0614002 0.872808 0.872808 2 2 3
0.0615581 0.874335 0.874335 2 2 3
0.061718 0.87588 0.87588 2 2 3
0.0618801 0.877445 0.877445 2 2 3
0.0620444 0.87903 0.87903 2 2 3
0.062211 0.880635 0.880635 2 2 3
0.0623798 0.88226 0.88226 2 2 3
0.0625509 0.883907 0.883907 2 2 3
0.0627243 0.885575 0.885575 2 2 3
0.0629002 0.887264 0.887264 2 2 3
0.0630785 0.888976 0.888976 2 2 3
0.0632592 0.89071 0.89071 2 2 3
0.0634425 0.892467 0.892467 2 2 3
0.0636284 0.894247 0.894247 2 2 3
0.0638169 0.896051 0.896051 2 2 3
0.0640081 0.897879 0.897879 2 2 3
0.0642021 0.899732 0.899732 2 2 3
0.0643988 0.90161 0.90161 2 2 3
0.0645983 0.903513 0.903513 2 2 3
0.0648007 0.905442 0.905442 2 2 3
0.0650061 0.907398 0.907398 2 2 3
0.0652144 0.909381 0.909381 2 2 3
0.0654259 0.911391 0.911391 2 2 3
0.0656404 0.91343 0.91343 2 2 3
0.0658581 0.915497 0.915497 2 2 3
0.0660791 0.917593 0.917593 2 2 3
0.0663034 0.919718 0.919718 2 2 3
0.0665311 0.921874 0.921874 2 2 3
0.0667622 0.924061 0.924061 2 2 3
0.0669968 0.926279 0.926279 2 2 3
0.067235 0.928529 0.928529 2 2 3
0.0674769 0.930812 0.930812 2 2 3
0.0677224 0.933128 0.933128 2 2 3
0.0679718 0.935479 0.935479 2 2 3
0.0682251 0.937863 0.937863 2 2 3
0.0684824 0.940284 0.940284 2 2 3
0.0687437 0.94274 0.94274 2 2 3
0.0690092 0.945233 0.945233 2 2 3
0.0692788 0.947764 0.947764 2 2 3
0.0695528 0.950333 0.950333 2 2 3
0.0698312 0.952941 0.952941 2 2 3
0.0701142 0.955589 0.955589 2 2 3
0.0704017 0.958278 0.958278 2 2 3
0.0706939 0.961008 0.961008 2 2 3
0.0709909 0.963781 0.963781 2 2 3
0.0712928 0.966597 0.966597 2 2 3
0.0715997 0.969458 0.969458 2 2 3
0.0719118 0.972364 0.972364 2 2 3
0.0722291 0.975316 0.975316 2 2 3
0.0725518 0.978315 0.978315 2 2 3
0.0728799 0.981363 0.981363 2 2 3
0.0732137 0.98446 0.98446 2 2 3
0.0735532 0.987607 0.987607 2 2 3
0.0738985 0.990806 0.990806 2 2 3
0.0742499 0.994058 0.994058 2 2 3
0.0746074 0.997363 0.997363 2 2 3
0.0749712 1.00072 1.00072 2 2 3
0.0753414 1.00414 1.00414 2 2 3
0.0757182 1.00761 1.00761 2 2 3
0.0761018 1.01115 1.01115 2 2 3
0.0764922 1.01474 1.01474 2 2 3
0.0768898 1.0184 1.0184 2 2 3
0.0772946 1.02211 1.02211 2 2 3
0.0777068 1.0259 1.0259 2 2 3
0.0781266 1.02975 1.02975 2 2 3
0.0785542 1.03366 1.03366 2 2 3
0.0789899 1.03765 1.03765 2 2 3
0.0794337 1.0417 1.0417 2 2 3
0.0798859 1.04583 1.04583 2 2 3
0.0803467 1.05004 1.05004 2 2 3
0.0808164 1.05432 1.05432 2 2 3
0.0812951 1.05868 1.05868 2 2 3
0.0817832 1.06312 1.06312 2 2 3
0.0822808 1.06764 1.06764 2 2 3
0.0827882 1.07224 1.07224 2 2 3
0.0833056 1.07693 1.07693 2 2 3
0.0838334 1.08171 1.08171 2 2 3
0.0843718 1.08658 1.08658 2 2 3
0.0849211 1.09155 1.09155 2 2 3
0.0854817 1.09661 1.09661 2 2 3
0.0860537 1.10176 1.10176 2 2 3
0.0866376 1.10702 1.10702 2 2 3
0.0872336 1.11239 1.11239 2 2 3
0.0878422 1.11785 1.11785 2 2 3
0.0884636 1.12343 1.12343 2 2 3
0.0890983 1.12912 1.12912 2 2 3
0.0897466 1.13493 1.13493 2 2 3
0.0904089 1.14085 1.14085 2 2 3
0.0910857 1.1469 1.1469 2 2 3
0.0917773 1.15307 1.15307 2 2 3
0.0924843 1.15937 1.15937 2 2 3
0.0932071 1.1658 1.1658 2 2 3
0.0939461 1.17237 1.17237 2 2 3
0.0947019 1.17908 1.17908 2 2 3
0.095475 1.18593 1.18593 2 2 3
0.096266 1.19294 1.19294 2 2 3
0.0970754 1.20009 1.20009 2 2 3
0.0979037 1.20741 1.20741 2 2 3
0.0987517 1.21488 1.21488 2 2 3
0.0996199 1.22253 1.22253 2 2 3
0.100509 1.23035 1.23035 2 2 3
0.10142 1.23834 1.23834 2 2 3
0.102353 1.24652 1.24652 2 2 3
0.103309 1.25489 1.25489 2 2 3
0.104289 1.26346 1.26346 2 2 3
0.105294 1.27223 1.27223 2 2 3
0.106324 1.28121 1.28121 2 2 3
0.107381 1.2904 1.2904 2 2 3
0.108466 1.29982 1.29982 2 2 3
0.109578 1.30947 1.30947 2 2 3
0.11072 1.31936 1.31936 2 2 3
0.111893 1.3295 1.3295 2 2 3
0.113097 1.33989 1.33989 2 2 3
0.114335 1.35054 1.35054 2 2 3
0.115606 1.36147 1.36147 2 2 3
0.116912 1.37268 1.37268 2 2 3
0.118256 1.38419 1.38419 2 2 3
0.119637 1.396 1.396 2 2 3
0.121059 1.40813 1.40813 2 2 3
0.122522 1.42059 1.42059 2 2 3
0.124027 1.43338 1.43338 2 2 3
0.125578 1.44653 1.44653 2 2 3
