0.0534724 0.042553 0.042553 2 2 3
0.0536312 0.0428178 0.0428178 2 2 3
0.0537956 0.0430838 0.0430838 2 2 3
0.0539659 0.0433507 0.0433507 2 2 3
0.0541421 0.0436185 0.0436185 2 2 3
0.0543244 0.0438872 0.0438872 2 2 3
0.0545128 0.0441566 0.0441566 2 2 3
0.0547076 0.0444268 0.0444268 2 2 3
0.0549089 0.0446977 0.0446977 2 2 3
0.0551167 0.0449691 0.0449691 2 2 3
0.0553312 0.0452409 0.0452409 2 2 3
0.0555526 0.0455132 0.0455132 2 2 3
0.0557809 0.0457858 0.0457858 2 2 3
0.0560164 0.0460587 0.0460587 2 2 3
0.0562591 0.0463316 0.0463316 2 2 3
0.0565093 0.0466046 0.0466046 2 2 3
0.0567669 0.0468775 0.0468775 2 2 3
0.0570322 0.0471502 0.0471502 2 2 3
0.0573053 0.0474226 0.0474226 2 2 3
0.0575864 0.0476946 0.0476946 2 2 3
0.0578755 0.047966 0.047966 2 2 3
0.0581729 0.0482368 0.0482368 2 2 3
0.0584786 0.0485068 0.0485068 2 2 3
0.0587928 0.0487758 0.0487758 2 2 3
0.0591157 0.0490438 0.0490438 2 2 3
0.0594473 0.0493106 0.0493106 2 2 3
0.0597879 0.0495759 0.0495759 2 2 3
0.0601375 0.0498398 0.0498398 2 2 3
0.0604964 0.050102 0.050102 2 2 3
0.0608645 0.0503623 0.0503623 2 2 3
0.0612421 0.0506205 0.0506205 2 2 3
0.0616293 0.0508766 0.0508766 2 2 3
0.0620263 0.0511303 0.0511303 2 2 3
0.0624331 0.0513814 0.0513814 2 2 3
0.0628499 0.0516297 0.0516297 2 2 3
0.0632768 0.051875 0.051875 2 2 3
0.063714 0.0521172 0.0521172 2 2 3
0.0641615 0.0523559 0.0523559 2 2 3
0.0646194 0.052591 0.052591 2 2 3
0.065088 0.0528223 0.0528223 2 2 3
0.0655673 0.0530494 0.0530494 2 2 3
0.0660574 0.0532723 0.0532723 2 2 3
0.0665584 0.0534906 0.0534906 2 2 3
0.0670704 0.053704 0.053704 2 2 3
0.0675935 0.0539124 0.0539124 2 2 3
0.0681279 0.0541154 0.0541154 2 2 3
0.0686734 0.0543128 0.0543128 2 2 3
0.0692304 0.0545043 0.0545043 2 2 3
0.0697988 0.0546897 0.0546897 2 2 3
0.0703786 0.0548685 0.0548685 2 2 3
0.07097 0.0550406 0.0550406 2 2 3
0.0715731 0.0552056 0.0552056 2 2 3
0.0721877 0.0553632 0.0553632 2 2 3
0.0728141 0.0555131 0.0555131 2 2 3
0.0734521 0.055655 0.055655 2 2 3
0.0741019 0.0557885 0.0557885 2 2 3
0.0747634 0.0559133 0.0559133 2 2 3
0.0754367 0.0560291 0.0560291 2 2 3
0.0761217 0.0561355 0.0561355 2 2 3
0.0768184 0.0562321 0.0562321 2 2 3
0.0775267 0.0563186 0.0563186 2 2 3
0.0782467 0.0563947 0.0563947 2 2 3
0.0789783 0.0564599 0.0564599 2 2 3
0.0797214 0.0565139 0.0565139 2 2 3
0.0804759 0.0565564 0.0565564 2 2 3
0.0812418 0.0565868 0.0565868 2 2 3
0.0820189 0.0566049 0.0566049 2 2 3
0.0828071 0.0566102 0.0566102 2 2 3
0.0836063 0.0566023 0.0566023 2 2 3
0.0844164 0.0565809 0.0565809 2 2 3
0.0852371 0.0565455 0.0565455 2 2 3
0.0860682 0.0564957 0.0564957 2 2 3
0.0869097 0.0564311 0.0564311 2 2 3
0.0877612 0.0563514 0.0563514 2 2 3
0.0886226 0.056256 0.056256 2 2 3
0.0894936 0.0561446 0.0561446 2 2 3
0.0903739 0.0560168 0.0560168 2 2 3
0.0912632 0.0558721 0.0558721 2 2 3
0.0921613 0.0557102 0.0557102 2 2 3
0.0930678 0.0555306 0.0555306 2 2 3
0.0939824 0.0553329 0.0553329 2 2 3
0.0949046 0.0551166 0.0551166 2 2 3
0.0958342 0.0548815 0.0548815 2 2 3
0.0967707 0.054627 0.054627 2 2 3
0.0977137 0.0543529 0.0543529 2 2 3
0.0986627 0.0540586 0.0540586 2 2 3
0.0996173 0.0537438 0.0537438 2 2 3
0.100577 0.0534082 0.0534082 2 2 3
0.101541 0.0530513 0.0530513 2 2 3
0.102509 0.0526727 0.0526727 2 2 3
0.103481 0.0522722 0.0522722 2 2 3
0.104456 0.0518493 0.0518493 2 2 3
0.105433 0.0514038 0.0514038 2 2 3
0.106411 0.0509352 0.0509352 2 2 3
0.107391 0.0504434 0.0504434 2 2 3
0.108371 0.0499279 0.0499279 2 2 3
0.109351 0.0493885 0.0493885 2 2 3
0.110329 0.0488249 0.0488249 2 2 3
0.111306 0.0482369 0.0482369 2 2 3
0.112281 0.0476242 0.0476242 2 2 3
0.113252 0.0469866 0.0469866 2 2 3
0.114218 0.0463239 0.0463239 2 2 3
0.11518 0.0456359 0.0456359 2 2 3
0.116137 0.0449225 0.0449225 2 2 3
0.117086 0.0441834 0.0441834 2 2 3
0.118028 0.0434187 0.0434187 2 2 3
0.118962 0.0426282 0.0426282 2 2 3
0.119886 0.0418118 0.0418118 2 2 3
0.1208 0.0409695 0.0409695 2 2 3
0.121703 0.0401014 0.0401014 2 2 3
0.122593 0.0392073 0.0392073 2 2 3
0.123471 0.0382874 0.0382874 2 2 3
0.124334 0.0373418 0.0373418 2 2 3
0.125182 0.0363705 0.0363705 2 2 3
0.126014 0.0353738 0.0353738 2 2 3
0.126829 0.0343517 0.0343517 2 2 3
0.127626 0.0333045 0.0333045 2 2 3
0.128403 0.0322325 0.0322325 2 2 3
0.129161 0.031136 0.031136 2 2 3
0.129897 0.0300152 0.0300152 2 2 3
0.13061 0.0288705 0.0288705 2 2 3
0.1313 0.0277024 0.0277024 2 2 3
0.131966 0.0265113 0.0265113 2 2 3
0.132607 0.0252977 0.0252977 2 2 3
0.133221 0.024062 0.024062 2 2 3
0.133807 0.022805 0.022805 2 2 3
0.134365 0.0215271 0.0215271 2 2 3
0.134894 0.0202291 0.0202291 2 2 3
0.135392 0.0189116 0.0189116 2 2 3
0.135859 0.0175754 0.0175754 2 2 3
0.136293 0.0162212 0.0162212 2 2 3
0.136695 0.0148499 0.0148499 2 2 3
0.137062 0.0134624 0.0134624 2 2 3
0.137394 0.0120595 0.0120595 2 2 3
0.137691 0.0106423 0.0106423 2 2 3
0.137951 0.00921163 0.00921163 2 2 3
0.138174 0.00776863 0.00776863 2 2 3
0.138359 0.00631435 0.00631435 2 2 3
0.138506 0.00484989 0.00484989 2 2 3
0.138613 0.0033764 0.0033764 2 2 3
0.138681 0.00189507 0.00189507 2 2 3
0.138709 0.000407114 0.000407114 2 2 3
0.138696 -0.00108622 -0.00108622 2 2 3
0.138642 -0.00258365 -0.00258365 2 2 3
0.138546 -0.00408387 -0.00408387 2 2 3
0.138409 -0.00558553 -0.00558553 2 2 3
0.13823 -0.0070873 -0.0070873 2 2 3
0.13801 -0.00858779 -0.00858779 2 2 3
0.137747 -0.0100856 -0.0100856 2 2 3
0.137442 -0.0115793 -0.0115793 2 2 3
0.137096 -0.0130675 -0.0130675 2 2 3
0.136708 -0.0145488 -0.0145488 2 2 3
0.136278 -0.0160217 -0.0160217 2 2 3
0.135808 -0.0174848 -0.0174848 2 2 3
0.135296 -0.0189367 -0.0189367 2 2 3
0.134745 -0.0203758 -0.0203758 2 2 3
0.134154 -0.0218009 -0.0218009 2 2 3
0.133523 -0.0232105 -0.0232105 2 2 3
0.132855 -0.0246033 -0.0246033 2 2 3
0.132149 -0.0259778 -0.0259778 2 2 3
0.131406 -0.0273327 -0.0273327 2 2 3
0.130627 -0.0286668 -0.0286668 2 2 3
0.129814 -0.0299788 -0.0299788 2 2 3
0.128967 -0.0312674 -0.0312674 2 2 3
0.128088 -0.0325314 -0.0325314 2 2 3
0.127178 -0.0337697 -0.0337697 2 2 3
0.126237 -0.0349813 -0.0349813 2 2 3
0.125268 -0.0361651 -0.0361651 2 2 3
0.124272 -0.0373201 -0.0373201 2 2 3
0.12325 -0.0384455 -0.0384455 2 2 3
0.122204 -0.0395402 -0.0395402 2 2 3
0.121135 -0.0406037 -0.0406037 2 2 3
0.120044 -0.0416351 -0.0416351 2 2 3
0.118935 -0.0426339 -0.0426339 2 2 3
0.117807 -0.0435994 -0.0435994 2 2 3
0.116663 -0.0445311 -0.0445311 2 2 3
0.115504 -0.0454287 -0.0454287 2 2 3
0.114332 -0.0462917 -0.0462917 2 2 3
0.113149 -0.04712 -0.04712 2 2 3
0.111957 -0.0479133 -0.0479133 2 2 3
0.110756 -0.0486714 -0.0486714 2 2 3
0.109549 -0.0493944 -0.0493944 2 2 3
0.108338 -0.0500823 -0.0500823 2 2 3
0.107123 -0.0507352 -0.0507352 2 2 3
0.105907 -0.0513532 -0.0513532 2 2 3
0.104691 -0.0519366 -0.0519366 2 2 3
0.103476 -0.0524856 -0.0524856 2 2 3
0.102264 -0.0530007 -0.0530007 2 2 3
0.101057 -0.0534823 -0.0534823 2 2 3
0.0998553 -0.0539308 -0.0539308 2 2 3
0.0986609 -0.0543468 -0.0543468 2 2 3
0.0974748 -0.0547309 -0.0547309 2 2 3
0.0962982 -0.0550836 -0.0550836 2 2 3
0.0951324 -0.0554058 -0.0554058 2 2 3
0.0939783 -0.055698 -0.055698 2 2 3
0.092837 -0.055961 -0.055961 2 2 3
0.0917095 -0.0561957 -0.0561957 2 2 3
0.0905967 -0.0564027 -0.0564027 2 2 3
0.0894993 -0.056583 -0.056583 2 2 3
0.0884182 -0.0567374 -0.0567374 2 2 3
0.0873541 -0.0568667 -0.0568667 2 2 3
0.0863076 -0.0569719 -0.0569719 2 2 3
0.0852792 -0.0570537 -0.0570537 2 2 3
0.0842696 -0.0571132 -0.0571132 2 2 3
0.0832792 -0.0571512 -0.0571512 2 2 3
0.0823083 -0.0571685 -0.0571685 2 2 3
0.0813574 -0.0571662 -0.0571662 2 2 3
0.0804267 -0.057145 -0.057145 2 2 3
0.0795165 -0.0571059 -0.0571059 2 2 3
0.0786269 -0.0570497 -0.0570497 2 2 3
0.0777582 -0.0569773 -0.0569773 2 2 3
0.0769105 -0.0568896 -0.0568896 2 2 3
0.0760837 -0.0567873 -0.0567873 2 2 3
0.075278 -0.0566713 -0.0566713 2 2 3
0.0744934 -0.0565425 -0.0565425 2 2 3
0.0737297 -0.0564014 -0.0564014 2 2 3
0.0729869 -0.056249 -0.056249 2 2 3
0.0722649 -0.056086 -0.056086 2 2 3
0.0715636 -0.055913 -0.055913 2 2 3
0.0708828 -0.0557308 -0.0557308 2 2 3
0.0702224 -0.0555401 -0.0555401 2 2 3
0.0695821 -0.0553415 -0.0553415 2 2 3
0.0689618 -0.0551356 -0.0551356 2 2 3
0.0683611 -0.054923 -0.054923 2 2 3
0.0677799 -0.0547044 -0.0547044 2 2 3
0.0672179 -0.0544803 -0.0544803 2 2 3
0.0666748 -0.0542512 -0.0542512 2 2 3
0.0661504 -0.0540176 -0.0540176 2 2 3
0.0656444 -0.0537801 -0.0537801 2 2 3
0.0651564 -0.0535391 -0.0535391 2 2 3
0.0646862 -0.0532951 -0.0532951 2 2 3
0.0642334 -0.0530485 -0.0530485 2 2 3
0.0637979 -0.0527997 -0.0527997 2 2 3
0.0633793 -0.0525491 -0.0525491 2 2 3
0.0629773 -0.0522971 -0.0522971 2 2 3
0.0625915 -0.0520441 -0.0520441 2 2 3
0.0622218 -0.0517904 -0.0517904 2 2 3
0.0618679 -0.0515363 -0.0515363 2 2 3
0.0615293 -0.0512821 -0.0512821 2 2 3
0.061206 -0.0510282 -0.0510282 2 2 3
0.0608976 -0.0507748 -0.0507748 2 2 3
0.0606038 -0.0505222 -0.0505222 2 2 3
0.0603245 -0.0502706 -0.0502706 2 2 3
0.0600593 -0.0500203 -0.0500203 2 2 3
0.059808 -0.0497714 -0.0497714 2 2 3
0.0595705 -0.0495243 -0.0495243 2 2 3
0.0593465 -0.0492791 -0.0492791 2 2 3
0.0591358 -0.0490361 -0.0490361 2 2 3
0.0589383 -0.0487953 -0.0487953 2 2 3
0.0587537 -0.048557 -0.048557 2 2 3
0.058582 -0.0483214 -0.0483214 2 2 3
0.0584229 -0.0480885 -0.0480885 2 2 3
0.0582764 -0.0478587 -0.0478587 2 2 3
0.0581424 -0.0476319 -0.0476319 2 2 3
0.0580207 -0.0474083 -0.0474083 2 2 3
0.0579113 -0.0471882 -0.0471882 2 2 3
0.0578141 -0.0469715 -0.0469715 2 2 3
0.0577292 -0.0467584 -0.0467584 2 2 3
0.0576564 -0.0465491 -0.0465491 2 2 3
0.0575959 -0.0463436 -0.0463436 2 2 3
0.0575476 -0.046142 -0.046142 2 2 3
0.0575116 -0.0459445 -0.0459445 2 2 3
0.0574879 -0.0457511 -0.0457511 2 2 3
0.0574767 -0.045562 -0.045562 2 2 3
0.0574782 -0.0453771 -0.0453771 2 2 3
0.0574924 -0.0451967 -0.0451967 2 2 3
0.0575196 -0.0450208 -0.0450208 2 2 3
0.0575599 -0.0448494 -0.0448494 2 2 3
0.0576138 -0.0446826 -0.0446826 2 2 3
0.0576814 -0.0445206 -0.0445206 2 2 3
0.0577631 -0.0443633 -0.0443633 2 2 3
0.0578593 -0.0442108 -0.0442108 2 2 3
0.0579703 -0.0440632 -0.0440632 2 2 3
0.0580968 -0.0439205 -0.0439205 2 2 3
0.0582391 -0.0437827 -0.0437827 2 2 3
0.058398 -0.04365 -0.04365 2 2 3
0.0585739 -0.0435222 -0.0435222 2 2 3
0.0587676 -0.0433995 -0.0433995 2 2 3
0.0589799 -0.0432818 -0.0432818 2 2 3
0.0592116 -0.0431691 -0.0431691 2 2 3
0.0594637 -0.0430614 -0.0430614 2 2 3
0.059737 -0.0429587 -0.0429587 2 2 3
0.0600328 -0.0428608 -0.0428608 2 2 3
0.0603522 -0.0427678 -0.0427678 2 2 3
0.0606964 -0.0426795 -0.0426795 2 2 3
0.061067 -0.0425959 -0.0425959 2 2 3
0.0614653 -0.0425167 -0.0425167 2 2 3
0.0618932 -0.0424418 -0.0424418 2 2 3
0.0623525 -0.0423711 -0.0423711 2 2 3
0.0628451 -0.0423042 -0.0423042 2 2 3
0.0633732 -0.042241 -0.042241 2 2 3
0.0639392 -0.0421812 -0.0421812 2 2 3
0.0645458 -0.0421245 -0.0421245 2 2 3
0.0651958 -0.0420705 -0.0420705 2 2 3
0.0658925 -0.042019 -0.042019 2 2 3
0.0666393 -0.0419694 -0.0419694 2 2 3
0.0674402 -0.0419214 -0.0419214 2 2 3
0.0682996 -0.0418746 -0.0418746 2 2 3
0.0692224 -0.0418286 -0.0418286 2 2 3
0.070214 -0.0417829 -0.0417829 2 2 3
0.0712807 -0.0417371 -0.0417371 2 2 3
0.0724295 -0.0416907 -0.0416907 2 2 3
0.0736686 -0.0416434 -0.0416434 2 2 3
0.075007 -0.0415949 -0.0415949 2 2 3
0.0764556 -0.0415447 -0.0415447 2 2 3
0.0780268 -0.0414927 -0.0414927 2 2 3
0.079735 -0.0414385 -0.0414385 2 2 3
0.0815972 -0.0413821 -0.0413821 2 2 3
0.0836333 -0.0413233 -0.0413233 2 2 3
0.0858669 -0.0412621 -0.0412621 2 2 3
0.0883263 -0.0411983 -0.0411983 2 2 3
0.0910451 -0.0411319 -0.0411319 2 2 3
0.0940636 -0.0410629 -0.0410629 2 2 3
0.0974305 -0.0409909 -0.0409909 2 2 3
0.101205 -0.0409156 -0.0409156 2 2 3
0.105458 -0.0408361 -0.0408361 2 2 3
0.110276 -0.0407514 -0.0407514 2 2 3
0.115767 -0.0406596 -0.0406596 2 2 3
0.12206 -0.0405581 -0.0405581 2 2 3
0.129315 -0.0404435 -0.0404435 2 2 3
0.137725 -0.0403107 -0.0403107 2 2 3
0.147527 -0.0401536 -0.0401536 2 2 3
0.159009 -0.0399639 -0.0399639 2 2 3
0.17251 -0.0397316 -0.0397316 2 2 3
0.188429 -0.0394447 -0.0394447 2 2 3
0.207216 -0.0390897 -0.0390897 2 2 3
0.0540577 0.02 0.02 2 2 3
0.0540666 0.0199856 0.0199856 2 2 3
0.0540754 0.0199711 0.0199711 2 2 3
0.0540931 0.0199423 0.0199423 2 2 3
0.0541286 0.0198849 0.0198849 2 2 3
0.0541728 0.0198136 0.0198136 2 2 3
0.0542169 0.0197433 0.0197433 2 2 3
0.0542609 0.0196736 0.0196736 2 2 3
0.0543048 0.0196045 0.0196045 2 2 3
0.0543486 0.019536 0.019536 2 2 3
0.0543924 0.0194681 0.0194681 2 2 3
0.0544361 0.0194008 0.0194008 2 2 3
0.0544796 0.0193341 0.0193341 2 2 3
0.0545231 0.019268 0.019268 2 2 3
0.0545665 0.0192025 0.0192025 2 2 3
0.0546097 0.0191375 0.0191375 2 2 3
0.0546529 0.0190731 0.0190731 2 2 3
0.054696 0.0190092 0.0190092 2 2 3
0.0547389 0.0189458 0.0189458 2 2 3
0.0547818 0.0188831 0.0188831 2 2 3
0.0548246 0.0188208 0.0188208 2 2 3
0.0548672 0.0187591 0.0187591 2 2 3
0.0549097 0.0186979 0.0186979 2 2 3
0.0549522 0.0186372 0.0186372 2 2 3
0.0549945 0.018577 0.018577 2 2 3
0.0550367 0.0185173 0.0185173 2 2 3
0.0550788 0.0184581 0.0184581 2 2 3
0.0551208 0.0183994 0.0183994 2 2 3
0.0551627 0.0183412 0.0183412 2 2 3
0.0552045 0.0182834 0.0182834 2 2 3
0.0552461 0.0182262 0.0182262 2 2 3
0.0552876 0.0181694 0.0181694 2 2 3
0.055329 0.0181131 0.0181131 2 2 3
0.0553703 0.0180572 0.0180572 2 2 3
0.0554115 0.0180018 0.0180018 2 2 3
0.0554526 0.0179468 0.0179468 2 2 3
0.0554935 0.0178923 0.0178923 2 2 3
0.0555344 0.0178382 0.0178382 2 2 3
0.0555751 0.0177845 0.0177845 2 2 3
0.0556157 0.0177313 0.0177313 2 2 3
0.0556561 0.0176785 0.0176785 2 2 3
0.0556965 0.0176261 0.0176261 2 2 3
0.0557367 0.0175741 0.0175741 2 2 3
0.0557768 0.0175225 0.0175225 2 2 3
0.0558168 0.0174713 0.0174713 2 2 3
0.0558567 0.0174205 0.0174205 2 2 3
0.0558965 0.0173702 0.0173702 2 2 3
0.0559361 0.0173202 0.0173202 2 2 3
0.0559756 0.0172706 0.0172706 2 2 3
0.056015 0.0172213 0.0172213 2 2 3
0.0560543 0.0171725 0.0171725 2 2 3
0.0560934 0.017124 0.017124 2 2 3
0.0561325 0.0170759 0.0170759 2 2 3
0.0561714 0.0170281 0.0170281 2 2 3
0.0562102 0.0169807 0.0169807 2 2 3
0.0562489 0.0169337 0.0169337 2 2 3
0.0562874 0.016887 0.016887 2 2 3
0.0563259 0.0168407 0.0168407 2 2 3
0.0563642 0.0167947 0.0167947 2 2 3
0.0564024 0.016749 0.016749 2 2 3
0.0564405 0.0167037 0.0167037 2 2 3
0.0564784 0.0166587 0.0166587 2 2 3
0.0565163 0.016614 0.016614 2 2 3
0.056554 0.0165697 0.0165697 2 2 3
0.0565916 0.0165257 0.0165257 2 2 3
0.0566291 0.016482 0.016482 2 2 3
0.0566665 0.0164386 0.0164386 2 2 3
0.0567037 0.0163955 0.0163955 2 2 3
0.0567409 0.0163527 0.0163527 2 2 3
0.0567779 0.0163103 0.0163103 2 2 3
0.0568148 0.0162681 0.0162681 2 2 3
0.0568516 0.0162262 0.0162262 2 2 3
0.0568883 0.0161847 0.0161847 2 2 3
0.0569249 0.0161434 0.0161434 2 2 3
0.0569613 0.0161024 0.0161024 2 2 3
0.0569977 0.0160617 0.0160617 2 2 3
0.0570339 0.0160212 0.0160212 2 2 3
0.05707 0.0159811 0.0159811 2 2 3
0.057106 0.0159412 0.0159412 2 2 3
0.0571419 0.0159016 0.0159016 2 2 3
0.0571777 0.0158622 0.0158622 2 2 3
0.0572134 0.0158231 0.0158231 2 2 3
0.057249 0.0157843 0.0157843 2 2 3
0.0572844 0.0157458 0.0157458 2 2 3
0.0573198 0.0157075 0.0157075 2 2 3
0.057355 0.0156694 0.0156694 2 2 3
0.0573901 0.0156316 0.0156316 2 2 3
0.0574251 0.0155941 0.0155941 2 2 3
0.0574601 0.0155568 0.0155568 2 2 3
0.0574949 0.0155197 0.0155197 2 2 3
0.0575296 0.0154829 0.0154829 2 2 3
0.0575642 0.0154463 0.0154463 2 2 3
0.0575987 0.01541 0.01541 2 2 3
0.0576331 0.0153739 0.0153739 2 2 3
0.0576673 0.015338 0.015338 2 2 3
0.0577015 0.0153024 0.0153024 2 2 3
0.0577356 0.015267 0.015267 2 2 3
0.0577696 0.0152318 0.0152318 2 2 3
0.0578034 0.0151968 0.0151968 2 2 3
0.0578372 0.015162 0.015162 2 2 3
0.0578709 0.0151275 0.0151275 2 2 3
0.0579045 0.0150932 0.0150932 2 2 3
0.0579379 0.0150591 0.0150591 2 2 3
0.0579713 0.0150252 0.0150252 2 2 3
0.0580046 0.0149915 0.0149915 2 2 3
0.0580377 0.014958 0.014958 2 2 3
0.0580708 0.0149247 0.0149247 2 2 3
0.0581038 0.0148916 0.0148916 2 2 3
0.0581367 0.0148587 0.0148587 2 2 3
0.0581695 0.014826 0.014826 2 2 3
0.0582022 0.0147935 0.0147935 2 2 3
0.0582348 0.0147612 0.0147612 2 2 3
0.0582673 0.0147291 0.0147291 2 2 3
0.0582997 0.0146972 0.0146972 2 2 3
0.058332 0.0146655 0.0146655 2 2 3
0.0583642 0.014634 0.014634 2 2 3
0.0583964 0.0146026 0.0146026 2 2 3
0.0584284 0.0145714 0.0145714 2 2 3
0.0584603 0.0145404 0.0145404 2 2 3
0.0584922 0.0145096 0.0145096 2 2 3
0.058524 0.014479 0.014479 2 2 3
0.0585556 0.0144485 0.0144485 2 2 3
0.0585872 0.0144182 0.0144182 2 2 3
0.0586187 0.0143881 0.0143881 2 2 3
0.0586502 0.0143581 0.0143581 2 2 3
0.0586815 0.0143284 0.0143284 2 2 3
0.0587127 0.0142987 0.0142987 2 2 3
0.0587439 0.0142693 0.0142693 2 2 3
0.0587749 0.01424 0.01424 2 2 3
0.0588059 0.0142109 0.0142109 2 2 3
0.0588368 0.0141819 0.0141819 2 2 3
0.0588676 0.0141531 0.0141531 2 2 3
0.0588983 0.0141244 0.0141244 2 2 3
0.058929 0.014096 0.014096 2 2 3
0.0589595 0.0140676 0.0140676 2 2 3
0.05899 0.0140394 0.0140394 2 2 3
0.0590204 0.0140114 0.0140114 2 2 3
0.0590507 0.0139835 0.0139835 2 2 3
0.059081 0.0139558 0.0139558 2 2 3
0.0591111 0.0139282 0.0139282 2 2 3
0.0591412 0.0139007 0.0139007 2 2 3
0.0591712 0.0138734 0.0138734 2 2 3
0.0592011 0.0138463 0.0138463 2 2 3
0.0592309 0.0138192 0.0138192 2 2 3
0.0592607 0.0137924 0.0137924 2 2 3
0.0592903 0.0137656 0.0137656 2 2 3
0.0593199 0.013739 0.013739 2 2 3
0.0593495 0.0137126 0.0137126 2 2 3
0.0593789 0.0136862 0.0136862 2 2 3
0.0594083 0.01366 0.01366 2 2 3
0.0594376 0.013634 0.013634 2 2 3
0.0594668 0.013608 0.013608 2 2 3
0.0594959 0.0135822 0.0135822 2 2 3
0.059525 0.0135566 0.0135566 2 2 3
0.059554 0.013531 0.013531 2 2 3
0.0595829 0.0135056 0.0135056 2 2 3
0.0596118 0.0134803 0.0134803 2 2 3
0.0596405 0.0134552 0.0134552 2 2 3
0.0596692 0.0134301 0.0134301 2 2 3
0.0596979 0.0134052 0.0134052 2 2 3
0.0597264 0.0133804 0.0133804 2 2 3
0.0597549 0.0133557 0.0133557 2 2 3
0.0597833 0.0133312 0.0133312 2 2 3
0.0598117 0.0133067 0.0133067 2 2 3
0.05984 0.0132824 0.0132824 2 2 3
0.0598682 0.0132582 0.0132582 2 2 3
0.0598963 0.0132341 0.0132341 2 2 3
0.0599244 0.0132101 0.0132101 2 2 3
0.0599524 0.0131862 0.0131862 2 2 3
0.0599803 0.0131625 0.0131625 2 2 3
0.0600082 0.0131388 0.0131388 2 2 3
0.060036 0.0131153 0.0131153 2 2 3
0.0600637 0.0130919 0.0130919 2 2 3
0.0600914 0.0130686 0.0130686 2 2 3
0.060119 0.0130454 0.0130454 2 2 3
0.0601465 0.0130223 0.0130223 2 2 3
0.060174 0.0129993 0.0129993 2 2 3
0.0602014 0.0129764 0.0129764 2 2 3
0.0602287 0.0129536 0.0129536 2 2 3
0.060256 0.0129309 0.0129309 2 2 3
0.0602832 0.0129083 0.0129083 2 2 3
0.0603103 0.0128858 0.0128858 2 2 3
0.0603374 0.0128635 0.0128635 2 2 3
0.0603645 0.0128412 0.0128412 2 2 3
0.0603914 0.012819 0.012819 2 2 3
0.0604183 0.0127969 0.0127969 2 2 3
0.0604451 0.0127749 0.0127749 2 2 3
0.0604719 0.012753 0.012753 2 2 3
0.0604986 0.0127312 0.0127312 2 2 3
0.0605253 0.0127095 0.0127095 2 2 3
0.0605519 0.0126879 0.0126879 2 2 3
0.0605784 0.0126664 0.0126664 2 2 3
0.0606049 0.012645 0.012645 2 2 3
0.0606313 0.0126237 0.0126237 2 2 3
0.0606576 0.0126024 0.0126024 2 2 3
0.0606839 0.0125813 0.0125813 2 2 3
0.0607101 0.0125602 0.0125602 2 2 3
0.0607363 0.0125393 0.0125393 2 2 3
0.0607624 0.0125184 0.0125184 2 2 3
0.0607885 0.0124976 0.0124976 2 2 3
0.0608145 0.0124769 0.0124769 2 2 3
0.0608404 0.0124563 0.0124563 2 2 3
0.0608663 0.0124358 0.0124358 2 2 3
0.0608921 0.0124153 0.0124153 2 2 3
0.0609179 0.012395 0.012395 2 2 3
0.0609436 0.0123747 0.0123747 2 2 3
0.0609693 0.0123545 0.0123545 2 2 3
0.0609949 0.0123344 0.0123344 2 2 3
0.0610204 0.0123143 0.0123143 2 2 3
0.0610459 0.0122944 0.0122944 2 2 3
0.0610713 0.0122745 0.0122745 2 2 3
0.0610967 0.0122547 0.0122547 2 2 3
0.061122 0.012235 0.012235 2 2 3
0.0611473 0.0122154 0.0122154 2 2 3
0.0611725 0.0121959 0.0121959 2 2 3
0.0611977 0.0121764 0.0121764 2 2 3
0.0612228 0.012157 0.012157 2 2 3
0.0612479 0.0121377 0.0121377 2 2 3
0.0612729 0.0121184 0.0121184 2 2 3
0.0612978 0.0120993 0.0120993 2 2 3
0.0613227 0.0120802 0.0120802 2 2 3
0.0613476 0.0120612 0.0120612 2 2 3
0.0613724 0.0120422 0.0120422 2 2 3
0.0613971 0.0120234 0.0120234 2 2 3
0.0614218 0.0120046 0.0120046 2 2 3
0.0614465 0.0119858 0.0119858 2 2 3
0.061471 0.0119672 0.0119672 2 2 3
0.0614956 0.0119486 0.0119486 2 2 3
0.0615201 0.0119301 0.0119301 2 2 3
0.0615445 0.0119117 0.0119117 2 2 3
0.0615689 0.0118933 0.0118933 2 2 3
0.0615932 0.011875 0.011875 2 2 3
0.0616175 0.0118568 0.0118568 2 2 3
0.0616418 0.0118386 0.0118386 2 2 3
0.061666 0.0118205 0.0118205 2 2 3
0.0616901 0.0118025 0.0118025 2 2 3
0.0617142 0.0117845 0.0117845 2 2 3
0.0617382 0.0117666 0.0117666 2 2 3
0.0617622 0.0117488 0.0117488 2 2 3
0.0617862 0.011731 0.011731 2 2 3
0.0618101 0.0117133 0.0117133 2 2 3
0.0618339 0.0116957 0.0116957 2 2 3
0.0618577 0.0116781 0.0116781 2 2 3
0.0618815 0.0116606 0.0116606 2 2 3
0.0619052 0.0116432 0.0116432 2 2 3
0.0619288 0.0116258 0.0116258 2 2 3
0.0619525 0.0116085 0.0116085 2 2 3
0.061976 0.0115913 0.0115913 2 2 3
0.0619995 0.0115741 0.0115741 2 2 3
0.062023 0.011557 0.011557 2 2 3
0.0620464 0.0115399 0.0115399 2 2 3
0.0620698 0.0115229 0.0115229 2 2 3
0.0620932 0.011506 0.011506 2 2 3
0.0621164 0.0114891 0.0114891 2 2 3
0.0621397 0.0114723 0.0114723 2 2 3
0.0621629 0.0114555 0.0114555 2 2 3
0.062186 0.0114388 0.0114388 2 2 3
0.0622091 0.0114221 0.0114221 2 2 3
0.0622322 0.0114056 0.0114056 2 2 3
0.0622552 0.011389 0.011389 2 2 3
0.0622782 0.0113726 0.0113726 2 2 3
0.0623011 0.0113561 0.0113561 2 2 3
0.062324 0.0113398 0.0113398 2 2 3
0.0623469 0.0113235 0.0113235 2 2 3
0.0623697 0.0113072 0.0113072 2 2 3
0.0623924 0.0112911 0.0112911 2 2 3
0.0624151 0.0112749 0.0112749 2 2 3
0.0624378 0.0112588 0.0112588 2 2 3
0.0624604 0.0112428 0.0112428 2 2 3
0.062483 0.0112269 0.0112269 2 2 3
0.0625055 0.0112109 0.0112109 2 2 3
0.062528 0.0111951 0.0111951 2 2 3
0.0625505 0.0111793 0.0111793 2 2 3
0.0625729 0.0111635 0.0111635 2 2 3
0.0625952 0.0111478 0.0111478 2 2 3
0.0626176 0.0111322 0.0111322 2 2 3
0.0626398 0.0111166 0.0111166 2 2 3
0.0626621 0.011101 0.011101 2 2 3
0.0626843 0.0110855 0.0110855 2 2 3
0.0627064 0.0110701 0.0110701 2 2 3
0.0627285 0.0110547 0.0110547 2 2 3
0.0627506 0.0110394 0.0110394 2 2 3
0.0627726 0.0110241 0.0110241 2 2 3
0.0627946 0.0110088 0.0110088 2 2 3
0.0628166 0.0109936 0.0109936 2 2 3
0.0628385 0.0109785 0.0109785 2 2 3
0.0628604 0.0109634 0.0109634 2 2 3
0.0628822 0.0109484 0.0109484 2 2 3
0.062904 0.0109334 0.0109334 2 2 3
0.0629257 0.0109184 0.0109184 2 2 3
0.0629474 0.0109036 0.0109036 2 2 3
0.0629691 0.0108887 0.0108887 2 2 3
0.0629907 0.0108739 0.0108739 2 2 3
0.0630123 0.0108592 0.0108592 2 2 3
0.0630338 0.0108445 0.0108445 2 2 3
0.0630554 0.0108298 0.0108298 2 2 3
0.0630768 0.0108152 0.0108152 2 2 3
0.0630982 0.0108006 0.0108006 2 2 3
0.0631196 0.0107861 0.0107861 2 2 3
0.063141 0.0107716 0.0107716 2 2 3
0.0631623 0.0107572 0.0107572 2 2 3
0.0631836 0.0107428 0.0107428 2 2 3
0.0632048 0.0107285 0.0107285 2 2 3
0.063226 0.0107142 0.0107142 2 2 3
0.0632471 0.0107 0.0107 2 2 3
0.0632682 0.0106858 0.0106858 2 2 3
0.0632893 0.0106716 0.0106716 2 2 3
0.0633104 0.0106575 0.0106575 2 2 3
0.0633314 0.0106434 0.0106434 2 2 3
0.0633523 0.0106294 0.0106294 2 2 3
0.0633733 0.0106154 0.0106154 2 2 3
0.0633941 0.0106015 0.0106015 2 2 3
0.063415 0.0105876 0.0105876 2 2 3
0.0634358 0.0105738 0.0105738 2 2 3
0.0634566 0.0105599 0.0105599 2 2 3
0.0634773 0.0105462 0.0105462 2 2 3
0.063498 0.0105325 0.0105325 2 2 3
0.0635187 0.0105188 0.0105188 2 2 3
0.0635393 0.0105051 0.0105051 2 2 3
0.0635599 0.0104915 0.0104915 2 2 3
0.0635804 0.010478 0.010478 2 2 3
0.0636009 0.0104645 0.0104645 2 2 3
0.0636214 0.010451 0.010451 2 2 3
0.0636419 0.0104376 0.0104376 2 2 3
0.0636623 0.0104242 0.0104242 2 2 3
0.0636826 0.0104108 0.0104108 2 2 3
0.063703 0.0103975 0.0103975 2 2 3
0.0637232 0.0103842 0.0103842 2 2 3
0.0637435 0.010371 0.010371 2 2 3
0.0637637 0.0103578 0.0103578 2 2 3
0.0637839 0.0103446 0.0103446 2 2 3
0.0638041 0.0103315 0.0103315 2 2 3
0.0638242 0.0103184 0.0103184 2 2 3
0.0638442 0.0103054 0.0103054 2 2 3
0.0638643 0.0102924 0.0102924 2 2 3
0.0638843 0.0102794 0.0102794 2 2 3
0.0639043 0.0102665 0.0102665 2 2 3
0.0639242 0.0102536 0.0102536 2 2 3
0.0639441 0.0102408 0.0102408 2 2 3
0.063964 0.010228 0.010228 2 2 3
0.0639838 0.0102152 0.0102152 2 2 3
0.0640036 0.0102025 0.0102025 2 2 3
0.0640234 0.0101898 0.0101898 2 2 3
0.0640431 0.0101771 0.0101771 2 2 3
0.0640628 0.0101645 0.0101645 2 2 3
0.0640824 0.0101519 0.0101519 2 2 3
0.064102 0.0101394 0.0101394 2 2 3
0.0641216 0.0101269 0.0101269 2 2 3
0.0641412 0.0101144 0.0101144 2 2 3
0.0641607 0.0101019 0.0101019 2 2 3
0.0641802 0.0100895 0.0100895 2 2 3
0.0641996 0.0100772 0.0100772 2 2 3
0.064219 0.0100648 0.0100648 2 2 3
0.0642384 0.0100525 0.0100525 2 2 3
0.0642578 0.0100403 0.0100403 2 2 3
0.0642771 0.010028 0.010028 2 2 3
0.0642964 0.0100158 0.0100158 2 2 3
0.0643156 0.0100037 0.0100037 2 2 3
0.0643348 0.00999156 0.00999156 2 2 3
0.064354 0.00997947 0.00997947 2 2 3
0.0643731 0.00996742 0.00996742 2 2 3
0.0643922 0.0099554 0.0099554 2 2 3
0.0644113 0.00994341 0.00994341 2 2 3
0.0644304 0.00993146 0.00993146 2 2 3
0.0644494 0.00991954 0.00991954 2 2 3
0.0644683 0.00990766 0.00990766 2 2 3
0.0644873 0.0098958 0.0098958 2 2 3
0.0645062 0.00988398 0.00988398 2 2 3
0.0645251 0.0098722 0.0098722 2 2 3
0.0645439 0.00986045 0.00986045 2 2 3
0.0645627 0.00984873 0.00984873 2 2 3
0.0645815 0.00983704 0.00983704 2 2 3
0.0646003 0.00982539 0.00982539 2 2 3
0.064619 0.00981376 0.00981376 2 2 3
0.0646377 0.00980217 0.00980217 2 2 3
0.0646563 0.00979062 0.00979062 2 2 3
0.0646749 0.00977909 0.00977909 2 2 3
0.0646935 0.0097676 0.0097676 2 2 3
0.0647121 0.00975614 0.00975614 2 2 3
0.0647306 0.00974471 0.00974471 2 2 3
0.0647491 0.00973331 0.00973331 2 2 3
0.0647675 0.00972194 0.00972194 2 2 3
0.0647859 0.00971061 0.00971061 2 2 3
0.0648043 0.0096993 0.0096993 2 2 3
0.0648227 0.00968803 0.00968803 2 2 3
0.064841 0.00967679 0.00967679 2 2 3
0.0648593 0.00966557 0.00966557 2 2 3
0.0648776 0.00965439 0.00965439 2 2 3
0.0648958 0.00964324 0.00964324 2 2 3
0.064914 0.00963212 0.00963212 2 2 3
0.0649322 0.00962103 0.00962103 2 2 3
0.0649503 0.00960997 0.00960997 2 2 3
0.0649684 0.00959894 0.00959894 2 2 3
0.0649865 0.00958794 0.00958794 2 2 3
0.0650045 0.00957697 0.00957697 2 2 3
0.0650226 0.00956603 0.00956603 2 2 3
0.0650405 0.00955512 0.00955512 2 2 3
0.0650585 0.00954424 0.00954424 2 2 3
0.0650764 0.00953339 0.00953339 2 2 3
0.0650943 0.00952256 0.00952256 2 2 3
0.0651122 0.00951177 0.00951177 2 2 3
0.06513 0.00950101 0.00950101 2 2 3
0.0651478 0.00949027 0.00949027 2 2 3
0.0651655 0.00947956 0.00947956 2 2 3
0.0651833 0.00946888 0.00946888 2 2 3
0.065201 0.00945823 0.00945823 2 2 3
0.0652187 0.00944761 0.00944761 2 2 3
0.0652363 0.00943702 0.00943702 2 2 3
0.0652539 0.00942645 0.00942645 2 2 3
0.0652715 0.00941592 0.00941592 2 2 3
0.065289 0.00940541 0.00940541 2 2 3
0.0653066 0.00939493 0.00939493 2 2 3
0.0653241 0.00938447 0.00938447 2 2 3
0.0653415 0.00937405 0.00937405 2 2 3
0.065359 0.00936365 0.00936365 2 2 3
0.0653764 0.00935328 0.00935328 2 2 3
0.0653937 0.00934294 0.00934294 2 2 3
0.0654111 0.00933262 0.00933262 2 2 3
0.0654284 0.00932233 0.00932233 2 2 3
0.0654457 0.00931207 0.00931207 2 2 3
0.0654629 0.00930184 0.00930184 2 2 3
0.0654801 0.00929163 0.00929163 2 2 3
0.0654973 0.00928145 0.00928145 2 2 3
0.0655145 0.00927129 0.00927129 2 2 3
0.0655316 0.00926117 0.00926117 2 2 3
0.0655487 0.00925106 0.00925106 2 2 3
0.0655658 0.00924099 0.00924099 2 2 3
0.0655829 0.00923094 0.00923094 2 2 3
0.0655999 0.00922092 0.00922092 2 2 3
0.0656169 0.00921092 0.00921092 2 2 3
0.0656338 0.00920095 0.00920095 2 2 3
0.0656507 0.00919101 0.00919101 2 2 3
0.0656676 0.00918109 0.00918109 2 2 3
0.0656845 0.00917119 0.00917119 2 2 3
0.0657014 0.00916133 0.00916133 2 2 3
0.0657182 0.00915149 0.00915149 2 2 3
0.065735 0.00914167 0.00914167 2 2 3
0.0657517 0.00913188 0.00913188 2 2 3
0.0657684 0.00912211 0.00912211 2 2 3
0.0657851 0.00911237 0.00911237 2 2 3
0.0658018 0.00910266 0.00910266 2 2 3
0.0658184 0.00909296 0.00909296 2 2 3
0.0658351 0.0090833 0.0090833 2 2 3
0.0658516 0.00907366 0.00907366 2 2 3
0.0658682 0.00906404 0.00906404 2 2 3
0.0658847 0.00905445 0.00905445 2 2 3
0.0659012 0.00904488 0.00904488 2 2 3
0.0659177 0.00903534 0.00903534 2 2 3
0.0659341 0.00902582 0.00902582 2 2 3
0.0659505 0.00901633 0.00901633 2 2 3
0.0659669 0.00900686 0.00900686 2 2 3
0.0659833 0.00899741 0.00899741 2 2 3
0.0659996 0.00898799 0.00898799 2 2 3
0.0660159 0.00897859 0.00897859 2 2 3
0.0660322 0.00896922 0.00896922 2 2 3
0.0660484 0.00895987 0.00895987 2 2 3
0.0660647 0.00895054 0.00895054 2 2 3
0.0660808 0.00894124 0.00894124 2 2 3
0.066097 0.00893196 0.00893196 2 2 3
0.0661131 0.0089227 0.0089227 2 2 3
0.0661292 0.00891347 0.00891347 2 2 3
0.0661453 0.00890426 0.00890426 2 2 3
0.0661614 0.00889507 0.00889507 2 2 3
0.0661774 0.00888591 0.00888591 2 2 3
0.0661934 0.00887677 0.00887677 2 2 3
0.0662094 0.00886765 0.00886765 2 2 3
0.0662253 0.00885856 0.00885856 2 2 3
0.0662412 0.00884949 0.00884949 2 2 3
0.0662571 0.00884044 0.00884044 2 2 3
0.066273 0.00883141 0.00883141 2 2 3
0.0662888 0.00882241 0.00882241 2 2 3
0.0663046 0.00881343 0.00881343 2 2 3
0.0663204 0.00880447 0.00880447 2 2 3
0.0663361 0.00879553 0.00879553 2 2 3
0.0663519 0.00878662 0.00878662 2 2 3
0.0663676 0.00877773 0.00877773 2 2 3
0.0663832 0.00876886 0.00876886 2 2 3
0.0663989 0.00876001 0.00876001 2 2 3
0.0664145 0.00875119 0.00875119 2 2 3
0.0664301 0.00874238 0.00874238 2 2 3
0.0664457 0.0087336 0.0087336 2 2 3
0.0664612 0.00872484 0.00872484 2 2 3
0.0664767 0.0087161 0.0087161 2 2 3
0.0664922 0.00870739 0.00870739 2 2 3
0.0665077 0.00869869 0.00869869 2 2 3
0.0665231 0.00869002 0.00869002 2 2 3
0.0665385 0.00868137 0.00868137 2 2 3
0.0665539 0.00867273 0.00867273 2 2 3
0.0665692 0.00866413 0.00866413 2 2 3
0.0665845 0.00865554 0.00865554 2 2 3
0.0665998 0.00864697 0.00864697 2 2 3
0.0666151 0.00863842 0.00863842 2 2 3
0.0666304 0.0086299 0.0086299 2 2 3
0.0666456 0.00862139 0.00862139 2 2 3
0.0666608 0.00861291 0.00861291 2 2 3
0.066676 0.00860445 0.00860445 2 2 3
0.0666911 0.00859601 0.00859601 2 2 3
0.0667062 0.00858758 0.00858758 2 2 3
0.0667213 0.00857918 0.00857918 2 2 3
0.0667364 0.0085708 0.0085708 2 2 3
0.0667514 0.00856244 0.00856244 2 2 3
0.0667664 0.0085541 0.0085541 2 2 3
0.0667814 0.00854578 0.00854578 2 2 3
0.0667964 0.00853749 0.00853749 2 2 3
0.0668113 0.00852921 0.00852921 2 2 3
0.0668262 0.00852095 0.00852095 2 2 3
0.0668411 0.00851271 0.00851271 2 2 3
0.066856 0.00850449 0.00850449 2 2 3
0.0668708 0.00849629 0.00849629 2 2 3
0.0668856 0.00848811 0.00848811 2 2 3
0.0669004 0.00847996 0.00847996 2 2 3
0.0669152 0.00847182 0.00847182 2 2 3
0.0669299 0.0084637 0.0084637 2 2 3
0.0669446 0.0084556 0.0084556 2 2 3
0.0669593 0.00844752 0.00844752 2 2 3
0.066974 0.00843946 0.00843946 2 2 3
0.0669886 0.00843142 0.00843142 2 2 3
0.0670032 0.00842339 0.00842339 2 2 3
0.0670178 0.00841539 0.00841539 2 2 3
0.0670324 0.00840741 0.00840741 2 2 3
0.0670469 0.00839944 0.00839944 2 2 3
0.0670614 0.0083915 0.0083915 2 2 3
0.0670759 0.00838357 0.00838357 2 2 3
0.0670903 0.00837566 0.00837566 2 2 3
0.0671048 0.00836778 0.00836778 2 2 3
0.0671192 0.00835991 0.00835991 2 2 3
0.0671336 0.00835206 0.00835206 2 2 3
0.0671479 0.00834423 0.00834423 2 2 3
0.0671623 0.00833641 0.00833641 2 2 3
0.0671766 0.00832862 0.00832862 2 2 3
0.0671909 0.00832084 0.00832084 2 2 3
0.0672051 0.00831309 0.00831309 2 2 3
0.0672194 0.00830535 0.00830535 2 2 3
0.0672336 0.00829763 0.00829763 2 2 3
0.0672478 0.00828993 0.00828993 2 2 3
0.067262 0.00828224 0.00828224 2 2 3
0.0672761 0.00827458 0.00827458 2 2 3
0.0672902 0.00826693 0.00826693 2 2 3
0.0673043 0.0082593 0.0082593 2 2 3
0.0673184 0.00825169 0.00825169 2 2 3
0.0673324 0.0082441 0.0082441 2 2 3
0.0673464 0.00823652 0.00823652 2 2 3
0.0673604 0.00822897 0.00822897 2 2 3
0.0673744 0.00822143 0.00822143 2 2 3
0.0673884 0.00821391 0.00821391 2 2 3
0.0674023 0.0082064 0.0082064 2 2 3
0.0674162 0.00819892 0.00819892 2 2 3
0.0674301 0.00819145 0.00819145 2 2 3
0.0674439 0.008184 0.008184 2 2 3
0.0674578 0.00817657 0.00817657 2 2 3
0.0674716 0.00816915 0.00816915 2 2 3
0.0674854 0.00816175 0.00816175 2 2 3
0.0674991 0.00815437 0.00815437 2 2 3
0.0675129 0.00814701 0.00814701 2 2 3
0.0675266 0.00813966 0.00813966 2 2 3
0.0675403 0.00813233 0.00813233 2 2 3
0.0675539 0.00812502 0.00812502 2 2 3
0.0675676 0.00811773 0.00811773 2 2 3
0.0675812 0.00811045 0.00811045 2 2 3
0.0675948 0.00810319 0.00810319 2 2 3
0.0676084 0.00809595 0.00809595 2 2 3
0.0676219 0.00808872 0.00808872 2 2 3
0.0676354 0.00808151 0.00808151 2 2 3
0.0676489 0.00807432 0.00807432 2 2 3
0.0676624 0.00806714 0.00806714 2 2 3
0.0676759 0.00805998 0.00805998 2 2 3
0.0676893 0.00805284 0.00805284 2 2 3
0.0677027 0.00804571 0.00804571 2 2 3
0.0677161 0.0080386 0.0080386 2 2 3
0.0677295 0.00803151 0.00803151 2 2 3
0.0677428 0.00802444 0.00802444 2 2 3
0.0677561 0.00801738 0.00801738 2 2 3
0.0677694 0.00801033 0.00801033 2 2 3
0.0677827 0.0080033 0.0080033 2 2 3
0.067796 0.00799629 0.00799629 2 2 3
0.0678092 0.0079893 0.0079893 2 2 3
0.0678224 0.00798232 0.00798232 2 2 3
0.0678356 0.00797536 0.00797536 2 2 3
0.0678488 0.00796841 0.00796841 2 2 3
0.0678619 0.00796148 0.00796148 2 2 3
0.067875 0.00795457 0.00795457 2 2 3
0.0678881 0.00794767 0.00794767 2 2 3
0.0679012 0.00794079 0.00794079 2 2 3
0.0679142 0.00793392 0.00793392 2 2 3
0.0679273 0.00792707 0.00792707 2 2 3
0.0679403 0.00792023 0.00792023 2 2 3
0.0679533 0.00791341 0.00791341 2 2 3
0.0679662 0.00790661 0.00790661 2 2 3
0.0679792 0.00789982 0.00789982 2 2 3
0.0679921 0.00789305 0.00789305 2 2 3
0.068005 0.00788629 0.00788629 2 2 3
0.0680178 0.00787955 0.00787955 2 2 3
0.0680307 0.00787283 0.00787283 2 2 3
0.0680435 0.00786612 0.00786612 2 2 3
0.0680563 0.00785942 0.00785942 2 2 3
0.0680691 0.00785274 0.00785274 2 2 3
0.0680819 0.00784608 0.00784608 2 2 3
0.0680946 0.00783943 0.00783943 2 2 3
0.0681073 0.00783279 0.00783279 2 2 3
0.06812 0.00782617 0.00782617 2 2 3
0.0681327 0.00781957 0.00781957 2 2 3
0.0681454 0.00781298 0.00781298 2 2 3
0.068158 0.00780641 0.00780641 2 2 3
0.0681706 0.00779985 0.00779985 2 2 3
0.0681832 0.0077933 0.0077933 2 2 3
0.0681958 0.00778677 0.00778677 2 2 3
0.0682083 0.00778026 0.00778026 2 2 3
0.0682209 0.00777376 0.00777376 2 2 3
0.0682334 0.00776727 0.00776727 2 2 3
0.0682458 0.0077608 0.0077608 2 2 3
0.0682583 0.00775435 0.00775435 2 2 3
0.0682708 0.00774791 0.00774791 2 2 3
0.0682832 0.00774148 0.00774148 2 2 3
0.0682956 0.00773507 0.00773507 2 2 3
0.068308 0.00772867 0.00772867 2 2 3
0.0683203 0.00772229 0.00772229 2 2 3
0.0683326 0.00771592 0.00771592 2 2 3
0.068345 0.00770957 0.00770957 2 2 3
0.0683573 0.00770323 0.00770323 2 2 3
0.0683695 0.0076969 0.0076969 2 2 3
0.0683818 0.00769059 0.00769059 2 2 3
0.068394 0.00768429 0.00768429 2 2 3
0.0684062 0.00767801 0.00767801 2 2 3
0.0684184 0.00767174 0.00767174 2 2 3
0.0684306 0.00766549 0.00766549 2 2 3
0.0684427 0.00765925 0.00765925 2 2 3
0.0684549 0.00765302 0.00765302 2 2 3
0.068467 0.00764681 0.00764681 2 2 3
0.068479 0.00764061 0.00764061 2 2 3
0.0684911 0.00763442 0.00763442 2 2 3
0.0685032 0.00762825 0.00762825 2 2 3
0.0685152 0.0076221 0.0076221 2 2 3
0.0685272 0.00761595 0.00761595 2 2 3
0.0685392 0.00760982 0.00760982 2 2 3
0.0685511 0.00760371 0.00760371 2 2 3
0.0685631 0.0075976 0.0075976 2 2 3
0.068575 0.00759152 0.00759152 2 2 3
0.0685869 0.00758544 0.00758544 2 2 3
0.0685988 0.00757938 0.00757938 2 2 3
0.0686106 0.00757333 0.00757333 2 2 3
0.0686225 0.0075673 0.0075673 2 2 3
0.0686343 0.00756128 0.00756128 2 2 3
0.0686461 0.00755527 0.00755527 2 2 3
0.0686579 0.00754927 0.00754927 2 2 3
0.0686697 0.00754329 0.00754329 2 2 3
0.0686814 0.00753732 0.00753732 2 2 3
0.0686931 0.00753137 0.00753137 2 2 3
0.0687048 0.00752543 0.00752543 2 2 3
0.0687165 0.0075195 0.0075195 2 2 3
0.0687282 0.00751359 0.00751359 2 2 3
0.0687398 0.00750768 0.00750768 2 2 3
0.0687514 0.00750179 0.00750179 2 2 3
0.068763 0.00749592 0.00749592 2 2 3
0.0687746 0.00749006 0.00749006 2 2 3
0.0687862 0.00748421 0.00748421 2 2 3
0.0687977 0.00747837 0.00747837 2 2 3
0.0688092 0.00747254 0.00747254 2 2 3
0.0688207 0.00746673 0.00746673 2 2 3
0.0688322 0.00746094 0.00746094 2 2 3
0.0688437 0.00745515 0.00745515 2 2 3
0.0688551 0.00744938 0.00744938 2 2 3
0.0688666 0.00744362 0.00744362 2 2 3
0.068878 0.00743787 0.00743787 2 2 3
0.0688894 0.00743213 0.00743213 2 2 3
0.0689007 0.00742641 0.00742641 2 2 3
0.0689121 0.0074207 0.0074207 2 2 3
0.0689234 0.007415 0.007415 2 2 3
0.0689347 0.00740932 0.00740932 2 2 3
0.068946 0.00740365 0.00740365 2 2 3
0.0689573 0.00739799 0.00739799 2 2 3
0.0689685 0.00739234 0.00739234 2 2 3
0.0689798 0.0073867 0.0073867 2 2 3
0.068991 0.00738108 0.00738108 2 2 3
0.0690022 0.00737547 0.00737547 2 2 3
0.0690134 0.00736987 0.00736987 2 2 3
0.0690245 0.00736429 0.00736429 2 2 3
0.0690357 0.00735871 0.00735871 2 2 3
0.0690468 0.00735315 0.00735315 2 2 3
0.0690579 0.0073476 0.0073476 2 2 3
0.069069 0.00734206 0.00734206 2 2 3
0.06908 0.00733654 0.00733654 2 2 3
0.0690911 0.00733102 0.00733102 2 2 3
0.0691021 0.00732552 0.00732552 2 2 3
0.0691131 0.00732003 0.00732003 2 2 3
0.0691241 0.00731456 0.00731456 2 2 3
0.0691351 0.00730909 0.00730909 2 2 3
0.069146 0.00730364 0.00730364 2 2 3
0.0691569 0.00729819 0.00729819 2 2 3
0.0691679 0.00729276 0.00729276 2 2 3
0.0691788 0.00728735 0.00728735 2 2 3
0.0691896 0.00728194 0.00728194 2 2 3
0.0692005 0.00727654 0.00727654 2 2 3
0.0692113 0.00727116 0.00727116 2 2 3
0.0692222 0.00726579 0.00726579 2 2 3
0.069233 0.00726043 0.00726043 2 2 3
0.0692437 0.00725508 0.00725508 2 2 3
0.0692545 0.00724974 0.00724974 2 2 3
0.0692653 0.00724442 0.00724442 2 2 3
0.069276 0.0072391 0.0072391 2 2 3
0.0692867 0.0072338 0.0072338 2 2 3
0.0692974 0.00722851 0.00722851 2 2 3
0.0693081 0.00722323 0.00722323 2 2 3
0.0693187 0.00721796 0.00721796 2 2 3
0.0693294 0.00721271 0.00721271 2 2 3
0.06934 0.00720746 0.00720746 2 2 3
0.0693506 0.00720223 0.00720223 2 2 3
0.0693612 0.007197 0.007197 2 2 3
0.0693718 0.00719179 0.00719179 2 2 3
0.0693823 0.00718659 0.00718659 2 2 3
0.0693929 0.0071814 0.0071814 2 2 3
0.0694034 0.00717622 0.00717622 2 2 3
0.0694139 0.00717105 0.00717105 2 2 3
0.0694243 0.0071659 0.0071659 2 2 3
0.0694348 0.00716075 0.00716075 2 2 3
0.0694453 0.00715562 0.00715562 2 2 3
0.0694557 0.00715049 0.00715049 2 2 3
0.0694661 0.00714538 0.00714538 2 2 3
0.0694765 0.00714028 0.00714028 2 2 3
0.0694869 0.00713519 0.00713519 2 2 3
0.0694972 0.00713011 0.00713011 2 2 3
0.0695076 0.00712504 0.00712504 2 2 3
0.0695179 0.00711998 0.00711998 2 2 3
0.0695282 0.00711493 0.00711493 2 2 3
0.0695385 0.0071099 0.0071099 2 2 3
0.0695487 0.00710487 0.00710487 2 2 3
0.069559 0.00709986 0.00709986 2 2 3
0.0695692 0.00709485 0.00709485 2 2 3
0.0695794 0.00708986 0.00708986 2 2 3
0.0695896 0.00708487 0.00708487 2 2 3
0.0695998 0.0070799 0.0070799 2 2 3
0.06961 0.00707494 0.00707494 2 2 3
0.0696201 0.00706999 0.00706999 2 2 3
0.0696303 0.00706504 0.00706504 2 2 3
0.0696404 0.00706011 0.00706011 2 2 3
0.0696505 0.00705519 0.00705519 2 2 3
0.0696606 0.00705028 0.00705028 2 2 3
0.0696706 0.00704538 0.00704538 2 2 3
0.0696807 0.00704049 0.00704049 2 2 3
0.0696907 0.00703561 0.00703561 2 2 3
0.0697007 0.00703075 0.00703075 2 2 3
0.0697107 0.00702589 0.00702589 2 2 3
0.0697207 0.00702104 0.00702104 2 2 3
0.0697307 0.0070162 0.0070162 2 2 3
0.0697406 0.00701137 0.00701137 2 2 3
0.0697506 0.00700656 0.00700656 2 2 3
0.0697605 0.00700175 0.00700175 2 2 3
0.0697704 0.00699695 0.00699695 2 2 3
0.0697802 0.00699216 0.00699216 2 2 3
0.0697901 0.00698739 0.00698739 2 2 3
0.0698 0.00698262 0.00698262 2 2 3
0.0698098 0.00697786 0.00697786 2 2 3
0.0698196 0.00697311 0.00697311 2 2 3
0.0698294 0.00696838 0.00696838 2 2 3
0.0698392 0.00696365 0.00696365 2 2 3
0.0698489 0.00695893 0.00695893 2 2 3
0.0698587 0.00695422 0.00695422 2 2 3
0.0698684 0.00694952 0.00694952 2 2 3
0.0698781 0.00694484 0.00694484 2 2 3
0.0698878 0.00694016 0.00694016 2 2 3
0.0698975 0.00693549 0.00693549 2 2 3
0.0699072 0.00693083 0.00693083 2 2 3
0.0699168 0.00692618 0.00692618 2 2 3
0.0699265 0.00692154 0.00692154 2 2 3
0.0699361 0.00691691 0.00691691 2 2 3
0.0699457 0.00691229 0.00691229 2 2 3
0.0699553 0.00690768 0.00690768 2 2 3
0.0699649 0.00690308 0.00690308 2 2 3
0.0699744 0.00689849 0.00689849 2 2 3
0.0699839 0.00689391 0.00689391 2 2 3
0.0699935 0.00688934 0.00688934 2 2 3
0.070003 0.00688477 0.00688477 2 2 3
0.0700125 0.00688022 0.00688022 2 2 3
0.0700219 0.00687568 0.00687568 2 2 3
0.0700314 0.00687114 0.00687114 2 2 3
0.0700408 0.00686662 0.00686662 2 2 3
0.0700503 0.0068621 0.0068621 2 2 3
0.0700597 0.00685759 0.00685759 2 2 3
0.0700691 0.0068531 0.0068531 2 2 3
0.0700785 0.00684861 0.00684861 2 2 3
0.0700878 0.00684413 0.00684413 2 2 3
0.0700972 0.00683966 0.00683966 2 2 3
0.0701065 0.0068352 0.0068352 2 2 3
0.0701158 0.00683075 0.00683075 2 2 3
0.0701251 0.00682631 0.00682631 2 2 3
0.0701344 0.00682188 0.00682188 2 2 3
0.0701437 0.00681745 0.00681745 2 2 3
0.0701529 0.00681304 0.00681304 2 2 3
0.0701622 0.00680863 0.00680863 2 2 3
0.0701714 0.00680424 0.00680424 2 2 3
0.0701806 0.00679985 0.00679985 2 2 3
0.0701898 0.00679547 0.00679547 2 2 3
0.070199 0.0067911 0.0067911 2 2 3
0.0702081 0.00678674 0.00678674 2 2 3
0.0702173 0.00678239 0.00678239 2 2 3
0.0702264 0.00677805 0.00677805 2 2 3
0.0702355 0.00677372 0.00677372 2 2 3
0.0702446 0.00676939 0.00676939 2 2 3
0.0702537 0.00676508 0.00676508 2 2 3
0.0702628 0.00676077 0.00676077 2 2 3
0.0702719 0.00675647 0.00675647 2 2 3
0.0702809 0.00675218 0.00675218 2 2 3
0.0702899 0.0067479 0.0067479 2 2 3
0.0702989 0.00674363 0.00674363 2 2 3
0.0703079 0.00673937 0.00673937 2 2 3
0.0703169 0.00673511 0.00673511 2 2 3
0.0703259 0.00673087 0.00673087 2 2 3
0.0703348 0.00672663 0.00672663 2 2 3
0.0703438 0.0067224 0.0067224 2 2 3
0.0703527 0.00671818 0.00671818 2 2 3
0.0703616 0.00671397 0.00671397 2 2 3
0.0703705 0.00670977 0.00670977 2 2 3
0.0703794 0.00670557 0.00670557 2 2 3
0.0703882 0.00670139 0.00670139 2 2 3
0.0703971 0.00669721 0.00669721 2 2 3
0.0704059 0.00669304 0.00669304 2 2 3
0.0704147 0.00668888 0.00668888 2 2 3
0.0704236 0.00668473 0.00668473 2 2 3
0.0704323 0.00668059 0.00668059 2 2 3
0.0704411 0.00667645 0.00667645 2 2 3
0.0704499 0.00667232 0.00667232 2 2 3
0.0704586 0.00666821 0.00666821 2 2 3
0.0704674 0.0066641 0.0066641 2 2 3
0.0704761 0.00665999 0.00665999 2 2 3
0.0704848 0.0066559 0.0066559 2 2 3
0.0704935 0.00665182 0.00665182 2 2 3
0.0705021 0.00664774 0.00664774 2 2 3
0.0705108 0.00664367 0.00664367 2 2 3
0.0705194 0.00663961 0.00663961 2 2 3
0.0705281 0.00663556 0.00663556 2 2 3
0.0705367 0.00663151 0.00663151 2 2 3
0.0705453 0.00662748 0.00662748 2 2 3
0.0705539 0.00662345 0.00662345 2 2 3
0.0705625 0.00661943 0.00661943 2 2 3
0.070571 0.00661542 0.00661542 2 2 3
0.0705796 0.00661141 0.00661141 2 2 3
0.0705881 0.00660742 0.00660742 2 2 3
0.0705966 0.00660343 0.00660343 2 2 3
0.0706051 0.00659945 0.00659945 2 2 3
0.0706136 0.00659548 0.00659548 2 2 3
0.0706221 0.00659152 0.00659152 2 2 3
0.0706306 0.00658756 0.00658756 2 2 3
0.070639 0.00658361 0.00658361 2 2 3
0.0706474 0.00657967 0.00657967 2 2 3
0.0706559 0.00657574 0.00657574 2 2 3
0.0706643 0.00657182 0.00657182 2 2 3
0.0706727 0.0065679 0.0065679 2 2 3
0.070681 0.00656399 0.00656399 2 2 3
0.0706894 0.00656009 0.00656009 2 2 3
0.0706978 0.0065562 0.0065562 2 2 3
0.0707061 0.00655231 0.00655231 2 2 3
0.0707144 0.00654844 0.00654844 2 2 3
0.0707227 0.00654457 0.00654457 2 2 3
0.070731 0.0065407 0.0065407 2 2 3
0.0707393 0.00653685 0.00653685 2 2 3
0.0707476 0.006533 0.006533 2 2 3
0.0707558 0.00652916 0.00652916 2 2 3
0.0707641 0.00652533 0.00652533 2 2 3
0.0707723 0.00652151 0.00652151 2 2 3
0.0707805 0.00651769 0.00651769 2 2 3
0.0707887 0.00651388 0.00651388 2 2 3
0.0707969 0.00651008 0.00651008 2 2 3
0.0708051 0.00650629 0.00650629 2 2 3
0.0708132 0.0065025 0.0065025 2 2 3
0.0708214 0.00649872 0.00649872 2 2 3
0.0708295 0.00649495 0.00649495 2 2 3
0.0708376 0.00649119 0.00649119 2 2 3
0.0708458 0.00648743 0.00648743 2 2 3
0.0708538 0.00648368 0.00648368 2 2 3
0.0708619 0.00647994 0.00647994 2 2 3
0.07087 0.00647621 0.00647621 2 2 3
0.0708781 0.00647248 0.00647248 2 2 3
0.0708861 0.00646876 0.00646876 2 2 3
0.0708941 0.00646505 0.00646505 2 2 3
0.0709021 0.00646135 0.00646135 2 2 3
0.0709101 0.00645765 0.00645765 2 2 3
0.0709181 0.00645396 0.00645396 2 2 3
0.0709261 0.00645027 0.00645027 2 2 3
0.0709341 0.0064466 0.0064466 2 2 3
0.070942 0.00644293 0.00644293 2 2 3
0.07095 0.00643927 0.00643927 2 2 3
0.0709579 0.00643562 0.00643562 2 2 3
0.0709658 0.00643197 0.00643197 2 2 3
0.0709737 0.00642833 0.00642833 2 2 3
0.0709816 0.0064247 0.0064247 2 2 3
0.0709894 0.00642107 0.00642107 2 2 3
0.0709973 0.00641745 0.00641745 2 2 3
0.0710052 0.00641384 0.00641384 2 2 3
0.071013 0.00641024 0.00641024 2 2 3
0.0710208 0.00640664 0.00640664 2 2 3
0.0710286 0.00640305 0.00640305 2 2 3
0.0710364 0.00639947 0.00639947 2 2 3
0.0710442 0.00639589 0.00639589 2 2 3
0.071052 0.00639232 0.00639232 2 2 3
0.0710597 0.00638876 0.00638876 2 2 3
0.0710675 0.0063852 0.0063852 2 2 3
0.0710752 0.00638165 0.00638165 2 2 3
0.0710829 0.00637811 0.00637811 2 2 3
0.0710906 0.00637458 0.00637458 2 2 3
0.0710983 0.00637105 0.00637105 2 2 3
0.071106 0.00636753 0.00636753 2 2 3
0.0711137 0.00636401 0.00636401 2 2 3
0.0711213 0.00636051 0.00636051 2 2 3
0.071129 0.00635701 0.00635701 2 2 3
0.0711366 0.00635351 0.00635351 2 2 3
0.0711442 0.00635003 0.00635003 2 2 3
0.0711518 0.00634655 0.00634655 2 2 3
0.0711594 0.00634307 0.00634307 2 2 3
0.071167 0.00633961 0.00633961 2 2 3
0.0711746 0.00633615 0.00633615 2 2 3
0.0711821 0.00633269 0.00633269 2 2 3
0.0711897 0.00632925 0.00632925 2 2 3
0.0711972 0.00632581 0.00632581 2 2 3
0.0712047 0.00632237 0.00632237 2 2 3
0.0712123 0.00631895 0.00631895 2 2 3
0.0712198 0.00631553 0.00631553 2 2 3
0.0712272 0.00631211 0.00631211 2 2 3
0.0712347 0.0063087 0.0063087 2 2 3
0.0712422 0.0063053 0.0063053 2 2 3
0.0712496 0.00630191 0.00630191 2 2 3
0.0712571 0.00629852 0.00629852 2 2 3
0.0712645 0.00629514 0.00629514 2 2 3
0.0712719 0.00629177 0.00629177 2 2 3
0.0712793 0.0062884 0.0062884 2 2 3
0.0712867 0.00628504 0.00628504 2 2 3
0.0712941 0.00628168 0.00628168 2 2 3
0.0713014 0.00627834 0.00627834 2 2 3
0.0713088 0.00627499 0.00627499 2 2 3
0.0713161 0.00627166 0.00627166 2 2 3
0.0713235 0.00626833 0.00626833 2 2 3
0.0713308 0.00626501 0.00626501 2 2 3
0.0713381 0.00626169 0.00626169 2 2 3
0.0713454 0.00625838 0.00625838 2 2 3
0.0713527 0.00625507 0.00625507 2 2 3
0.0713599 0.00625178 0.00625178 2 2 3
0.0713672 0.00624849 0.00624849 2 2 3
0.0713744 0.0062452 0.0062452 2 2 3
0.0713817 0.00624192 0.00624192 2 2 3
0.0713889 0.00623865 0.00623865 2 2 3
0.0713961 0.00623538 0.00623538 2 2 3
0.0714033 0.00623212 0.00623212 2 2 3
0.0714105 0.00622887 0.00622887 2 2 3
0.0714177 0.00622562 0.00622562 2 2 3
0.0714248 0.00622238 0.00622238 2 2 3
0.071432 0.00621914 0.00621914 2 2 3
0.0714391 0.00621592 0.00621592 2 2 3
0.0714463 0.00621269 0.00621269 2 2 3
0.0714534 0.00620948 0.00620948 2 2 3
0.0714605 0.00620626 0.00620626 2 2 3
0.0714676 0.00620306 0.00620306 2 2 3
0.0714747 0.00619986 0.00619986 2 2 3
0.0714818 0.00619667 0.00619667 2 2 3
0.0714888 0.00619348 0.00619348 2 2 3
0.0714959 0.0061903 0.0061903 2 2 3
0.0715029 0.00618713 0.00618713 2 2 3
0.0715099 0.00618396 0.00618396 2 2 3
0.071517 0.0061808 0.0061808 2 2 3
0.071524 0.00617764 0.00617764 2 2 3
0.071531 0.00617449 0.00617449 2 2 3
0.071538 0.00617134 0.00617134 2 2 3
0.0715449 0.00616821 0.00616821 2 2 3
0.0715519 0.00616507 0.00616507 2 2 3
0.0715588 0.00616195 0.00616195 2 2 3
0.0715658 0.00615882 0.00615882 2 2 3
0.0715727 0.00615571 0.00615571 2 2 3
0.0715796 0.0061526 0.0061526 2 2 3
0.0715865 0.0061495 0.0061495 2 2 3
0.0715934 0.0061464 0.0061464 2 2 3
0.0716003 0.00614331 0.00614331 2 2 3
0.0716072 0.00614022 0.00614022 2 2 3
0.071614 0.00613714 0.00613714 2 2 3
0.0716209 0.00613407 0.00613407 2 2 3
0.0716277 0.006131 0.006131 2 2 3
0.0716346 0.00612793 0.00612793 2 2 3
0.0716414 0.00612488 0.00612488 2 2 3
0.0716482 0.00612183 0.00612183 2 2 3
0.071655 0.00611878 0.00611878 2 2 3
0.0716618 0.00611574 0.00611574 2 2 3
