0.039045 0.0326173 0.0326173 2 2 3
0.0390411 0.0327058 0.0327058 2 2 3
0.0390378 0.0327949 0.0327949 2 2 3
0.0390349 0.0328848 0.0328848 2 2 3
0.0390326 0.0329754 0.0329754 2 2 3
0.0390308 0.0330666 0.0330666 2 2 3
0.0390295 0.0331586 0.0331586 2 2 3
0.0390288 0.0332513 0.0332513 2 2 3
0.0390286 0.0333447 0.0333447 2 2 3
0.0390291 0.0334389 0.0334389 2 2 3
0.0390301 0.0335338 0.0335338 2 2 3
0.0390317 0.0336295 0.0336295 2 2 3
0.039034 0.0337258 0.0337258 2 2 3
0.0390369 0.033823 0.033823 2 2 3
0.0390405 0.0339209 0.0339209 2 2 3
0.0390447 0.0340196 0.0340196 2 2 3
0.0390496 0.034119 0.034119 2 2 3
0.0390552 0.0342192 0.0342192 2 2 3
0.0390616 0.0343202 0.0343202 2 2 3
0.0390687 0.034422 0.034422 2 2 3
0.0390765 0.0345246 0.0345246 2 2 3
0.0390851 0.034628 0.034628 2 2 3
0.0390945 0.0347321 0.0347321 2 2 3
0.0391048 0.0348371 0.0348371 2 2 3
0.0391158 0.0349429 0.0349429 2 2 3
0.0391278 0.0350495 0.0350495 2 2 3
0.0391406 0.0351569 0.0351569 2 2 3
0.0391543 0.0352651 0.0352651 2 2 3
0.0391689 0.0353742 0.0353742 2 2 3
0.0391844 0.0354841 0.0354841 2 2 3
0.0392009 0.0355949 0.0355949 2 2 3
0.0392184 0.0357064 0.0357064 2 2 3
0.0392369 0.0358189 0.0358189 2 2 3
0.0392565 0.0359321 0.0359321 2 2 3
0.0392781 0.0360471 0.0360471 2 2 3
0.0392998 0.0361621 0.0361621 2 2 3
0.0393226 0.0362779 0.0362779 2 2 3
0.0393466 0.0363946 0.0363946 2 2 3
0.0393717 0.0365122 0.0365122 2 2 3
0.039398 0.0366306 0.0366306 2 2 3
0.0394255 0.0367499 0.0367499 2 2 3
0.0394542 0.0368701 0.0368701 2 2 3
0.0394843 0.0369911 0.0369911 2 2 3
0.0395156 0.037113 0.037113 2 2 3
0.0395482 0.0372358 0.0372358 2 2 3
0.0395823 0.0373595 0.0373595 2 2 3
0.0396177 0.037484 0.037484 2 2 3
0.0396545 0.0376094 0.0376094 2 2 3
0.0396928 0.0377357 0.0377357 2 2 3
0.0397326 0.0378629 0.0378629 2 2 3
0.0397739 0.0379909 0.0379909 2 2 3
0.0398168 0.0381198 0.0381198 2 2 3
0.0398613 0.0382496 0.0382496 2 2 3
0.0399074 0.0383803 0.0383803 2 2 3
0.0399551 0.0385118 0.0385118 2 2 3
0.0400046 0.0386442 0.0386442 2 2 3
0.0400559 0.0387775 0.0387775 2 2 3
0.0401089 0.0389116 0.0389116 2 2 3
0.0401637 0.0390466 0.0390466 2 2 3
0.0402204 0.0391825 0.0391825 2 2 3
0.040279 0.0393192 0.0393192 2 2 3
0.0403396 0.0394567 0.0394567 2 2 3
0.0404021 0.0395951 0.0395951 2 2 3
0.0404667 0.0397343 0.0397343 2 2 3
0.0405333 0.0398743 0.0398743 2 2 3
0.0406021 0.0400152 0.0400152 2 2 3
0.0406731 0.0401568 0.0401568 2 2 3
0.0407462 0.0402993 0.0402993 2 2 3
0.0408217 0.0404426 0.0404426 2 2 3
0.0408994 0.0405866 0.0405866 2 2 3
0.0409796 0.0407314 0.0407314 2 2 3
0.0410621 0.040877 0.040877 2 2 3
0.0411471 0.0410233 0.0410233 2 2 3
0.0412346 0.0411704 0.0411704 2 2 3
0.0413247 0.0413181 0.0413181 2 2 3
0.0414174 0.0414666 0.0414666 2 2 3
0.0415128 0.0416158 0.0416158 2 2 3
0.0416109 0.0417656 0.0417656 2 2 3
0.0417119 0.0419161 0.0419161 2 2 3
0.0418157 0.0420672 0.0420672 2 2 3
0.0419223 0.042219 0.042219 2 2 3
0.042032 0.0423713 0.0423713 2 2 3
0.0421447 0.0425242 0.0425242 2 2 3
0.0422605 0.0426777 0.0426777 2 2 3
0.0423794 0.0428316 0.0428316 2 2 3
0.0425016 0.0429861 0.0429861 2 2 3
0.042627 0.0431411 0.0431411 2 2 3
0.0427558 0.0432965 0.0432965 2 2 3
0.042888 0.0434523 0.0434523 2 2 3
0.0430237 0.0436085 0.0436085 2 2 3
0.043163 0.0437651 0.0437651 2 2 3
0.0433058 0.043922 0.043922 2 2 3
0.0434524 0.0440792 0.0440792 2 2 3
0.0436027 0.0442366 0.0442366 2 2 3
0.0437568 0.0443943 0.0443943 2 2 3
0.0439149 0.0445521 0.0445521 2 2 3
0.0440769 0.04471 0.04471 2 2 3
0.044243 0.0448681 0.0448681 2 2 3
0.0444132 0.0450262 0.0450262 2 2 3
0.0445876 0.0451843 0.0451843 2 2 3
0.0447663 0.0453423 0.0453423 2 2 3
0.0449493 0.0455002 0.0455002 2 2 3
0.0451368 0.045658 0.045658 2 2 3
0.0453288 0.0458156 0.0458156 2 2 3
0.0455254 0.0459729 0.0459729 2 2 3
0.0457267 0.0461299 0.0461299 2 2 3
0.0459327 0.0462866 0.0462866 2 2 3
0.0461436 0.0464427 0.0464427 2 2 3
0.0463594 0.0465984 0.0465984 2 2 3
0.0465802 0.0467535 0.0467535 2 2 3
0.0468061 0.0469079 0.0469079 2 2 3
0.0470371 0.0470616 0.0470616 2 2 3
0.0472734 0.0472146 0.0472146 2 2 3
0.0475151 0.0473666 0.0473666 2 2 3
0.0477622 0.0475177 0.0475177 2 2 3
0.0480147 0.0476678 0.0476678 2 2 3
0.0482729 0.0478168 0.0478168 2 2 3
0.0485368 0.0479645 0.0479645 2 2 3
0.0488064 0.048111 0.048111 2 2 3
0.0490819 0.048256 0.048256 2 2 3
0.0493633 0.0483996 0.0483996 2 2 3
0.0496508 0.0485415 0.0485415 2 2 3
0.0499443 0.0486818 0.0486818 2 2 3
0.0502441 0.0488202 0.0488202 2 2 3
0.0505501 0.0489568 0.0489568 2 2 3
0.0508624 0.0490913 0.0490913 2 2 3
0.0511813 0.0492237 0.0492237 2 2 3
0.0515066 0.0493538 0.0493538 2 2 3
0.0518386 0.0494815 0.0494815 2 2 3
0.0521772 0.0496067 0.0496067 2 2 3
0.0525226 0.0497293 0.0497293 2 2 3
0.0528748 0.049849 0.049849 2 2 3
0.053234 0.0499659 0.0499659 2 2 3
0.0536002 0.0500796 0.0500796 2 2 3
0.0539734 0.0501902 0.0501902 2 2 3
0.0543538 0.0502974 0.0502974 2 2 3
0.0547414 0.0504011 0.0504011 2 2 3
0.0551362 0.0505011 0.0505011 2 2 3
0.0555384 0.0505973 0.0505973 2 2 3
0.0559481 0.0506894 0.0506894 2 2 3
0.0563652 0.0507774 0.0507774 2 2 3
0.0567898 0.0508611 0.0508611 2 2 3
0.057222 0.0509402 0.0509402 2 2 3
0.0576618 0.0510146 0.0510146 2 2 3
0.0581094 0.0510841 0.0510841 2 2 3
0.0585646 0.0511485 0.0511485 2 2 3
0.0590276 0.0512076 0.0512076 2 2 3
0.0594985 0.0512612 0.0512612 2 2 3
0.0599771 0.0513091 0.0513091 2 2 3
0.0604637 0.0513512 0.0513512 2 2 3
0.0609581 0.0513871 0.0513871 2 2 3
0.0614605 0.0514166 0.0514166 2 2 3
0.0619707 0.0514397 0.0514397 2 2 3
0.0624889 0.0514559 0.0514559 2 2 3
0.0630151 0.0514651 0.0514651 2 2 3
0.0635492 0.0514671 0.0514671 2 2 3
0.0640912 0.0514615 0.0514615 2 2 3
0.0646411 0.0514483 0.0514483 2 2 3
0.0651989 0.0514271 0.0514271 2 2 3
0.0657646 0.0513976 0.0513976 2 2 3
0.066338 0.0513596 0.0513596 2 2 3
0.0669193 0.051313 0.051313 2 2 3
0.0675083 0.0512573 0.0512573 2 2 3
0.0681049 0.0511923 0.0511923 2 2 3
0.0687092 0.0511178 0.0511178 2 2 3
0.0693209 0.0510335 0.0510335 2 2 3
0.0699401 0.0509391 0.0509391 2 2 3
0.0705667 0.0508344 0.0508344 2 2 3
0.0712004 0.050719 0.050719 2 2 3
0.0718412 0.0505926 0.0505926 2 2 3
0.0724891 0.0504551 0.0504551 2 2 3
0.0731437 0.050306 0.050306 2 2 3
0.0738051 0.0501452 0.0501452 2 2 3
0.074473 0.0499723 0.0499723 2 2 3
0.0751472 0.049787 0.049787 2 2 3
0.0758276 0.049589 0.049589 2 2 3
0.076514 0.0493781 0.0493781 2 2 3
0.0772061 0.0491539 0.0491539 2 2 3
0.0779038 0.0489161 0.0489161 2 2 3
0.0786068 0.0486645 0.0486645 2 2 3
0.0793148 0.0483988 0.0483988 2 2 3
0.0800276 0.0481186 0.0481186 2 2 3
0.080745 0.0478236 0.0478236 2 2 3
0.0814665 0.0475137 0.0475137 2 2 3
0.0821919 0.0471884 0.0471884 2 2 3
0.082921 0.0468475 0.0468475 2 2 3
0.0836532 0.0464908 0.0464908 2 2 3
0.0843884 0.0461179 0.0461179 2 2 3
0.0851261 0.0457285 0.0457285 2 2 3
0.0858659 0.0453224 0.0453224 2 2 3
0.0866074 0.0448994 0.0448994 2 2 3
0.0873502 0.0444591 0.0444591 2 2 3
0.088094 0.0440014 0.0440014 2 2 3
0.0888381 0.0435259 0.0435259 2 2 3
0.0895822 0.0430324 0.0430324 2 2 3
0.0903258 0.0425207 0.0425207 2 2 3
0.0910683 0.0419906 0.0419906 2 2 3
0.0918093 0.0414419 0.0414419 2 2 3
0.0925482 0.0408744 0.0408744 2 2 3
0.0932845 0.0402878 0.0402878 2 2 3
0.0940176 0.039682 0.039682 2 2 3
0.0947469 0.0390568 0.0390568 2 2 3
0.0954718 0.0384121 0.0384121 2 2 3
0.0961917 0.0377478 0.0377478 2 2 3
0.096906 0.0370636 0.0370636 2 2 3
0.0976139 0.0363596 0.0363596 2 2 3
0.0983149 0.0356356 0.0356356 2 2 3
0.0990083 0.0348915 0.0348915 2 2 3
0.0996934 0.0341274 0.0341274 2 2 3
0.100369 0.033343 0.033343 2 2 3
0.101036 0.0325385 0.0325385 2 2 3
0.101692 0.0317139 0.0317139 2 2 3
0.102336 0.0308691 0.0308691 2 2 3
0.102969 0.0300042 0.0300042 2 2 3
0.103589 0.0291193 0.0291193 2 2 3
0.104195 0.0282145 0.0282145 2 2 3
0.104787 0.0272899 0.0272899 2 2 3
0.105364 0.0263456 0.0263456 2 2 3
0.105925 0.0253818 0.0253818 2 2 3
0.106469 0.0243988 0.0243988 2 2 3
0.106996 0.0233967 0.0233967 2 2 3
0.107505 0.0223758 0.0223758 2 2 3
0.107994 0.0213365 0.0213365 2 2 3
0.108463 0.0202789 0.0202789 2 2 3
0.108912 0.0192035 0.0192035 2 2 3
0.109339 0.0181106 0.0181106 2 2 3
0.109743 0.0170007 0.0170007 2 2 3
0.110124 0.0158742 0.0158742 2 2 3
0.110482 0.0147315 0.0147315 2 2 3
0.110814 0.0135733 0.0135733 2 2 3
0.111121 0.0124 0.0124 2 2 3
0.111402 0.0112122 0.0112122 2 2 3
0.111655 0.0100105 0.0100105 2 2 3
0.11188 0.00879563 0.00879563 2 2 3
0.112077 0.00756821 0.00756821 2 2 3
0.112245 0.00632896 0.00632896 2 2 3
0.112383 0.00507865 0.00507865 2 2 3
0.11249 0.00381807 0.00381807 2 2 3
0.112566 0.00254803 0.00254803 2 2 3
0.11261 0.00126938 0.00126938 2 2 3
0.112622 -1.69711e-05 -1.69711e-05 2 2 3
0.112601 -0.00131012 -0.00131012 2 2 3
0.112547 -0.00260911 -0.00260911 2 2 3
0.112458 -0.00391295 -0.00391295 2 2 3
0.112336 -0.00522064 -0.00522064 2 2 3
0.112179 -0.00653113 -0.00653113 2 2 3
0.111987 -0.00784335 -0.00784335 2 2 3
0.11176 -0.00915622 -0.00915622 2 2 3
0.111497 -0.0104686 -0.0104686 2 2 3
0.111199 -0.0117794 -0.0117794 2 2 3
0.110865 -0.0130874 -0.0130874 2 2 3
0.110495 -0.0143914 -0.0143914 2 2 3
0.11009 -0.0156903 -0.0156903 2 2 3
0.109649 -0.0169828 -0.0169828 2 2 3
0.109173 -0.0182677 -0.0182677 2 2 3
0.108661 -0.0195438 -0.0195438 2 2 3
0.108114 -0.0208098 -0.0208098 2 2 3
0.107532 -0.0220645 -0.0220645 2 2 3
0.106915 -0.0233067 -0.0233067 2 2 3
0.106265 -0.0245352 -0.0245352 2 2 3
0.105581 -0.0257486 -0.0257486 2 2 3
0.104865 -0.0269457 -0.0269457 2 2 3
0.104116 -0.0281255 -0.0281255 2 2 3
0.103336 -0.0292866 -0.0292866 2 2 3
0.102525 -0.0304278 -0.0304278 2 2 3
0.101684 -0.0315481 -0.0315481 2 2 3
0.100814 -0.0326464 -0.0326464 2 2 3
0.0999166 -0.0337214 -0.0337214 2 2 3
0.098992 -0.0347722 -0.0347722 2 2 3
0.0980417 -0.0357977 -0.0357977 2 2 3
0.0970668 -0.0367969 -0.0367969 2 2 3
0.0960684 -0.0377689 -0.0377689 2 2 3
0.0950479 -0.0387129 -0.0387129 2 2 3
0.0940067 -0.0396279 -0.0396279 2 2 3
0.092946 -0.0405131 -0.0405131 2 2 3
0.0918672 -0.0413679 -0.0413679 2 2 3
0.0907719 -0.0421916 -0.0421916 2 2 3
0.0896615 -0.0429835 -0.0429835 2 2 3
0.0885374 -0.0437431 -0.0437431 2 2 3
0.0874013 -0.0444698 -0.0444698 2 2 3
0.0862547 -0.0451634 -0.0451634 2 2 3
0.0850992 -0.0458234 -0.0458234 2 2 3
0.0839363 -0.0464495 -0.0464495 2 2 3
0.0827676 -0.0470415 -0.0470415 2 2 3
0.0815947 -0.0475992 -0.0475992 2 2 3
0.0804192 -0.0481227 -0.0481227 2 2 3
0.0792426 -0.0486118 -0.0486118 2 2 3
0.0780665 -0.0490667 -0.0490667 2 2 3
0.0768925 -0.0494874 -0.0494874 2 2 3
0.0757219 -0.0498742 -0.0498742 2 2 3
0.0745564 -0.0502273 -0.0502273 2 2 3
0.0733972 -0.050547 -0.050547 2 2 3
0.072246 -0.0508337 -0.0508337 2 2 3
0.0711039 -0.0510879 -0.0510879 2 2 3
0.0699723 -0.05131 -0.05131 2 2 3
0.0688525 -0.0515007 -0.0515007 2 2 3
0.0677456 -0.0516604 -0.0516604 2 2 3
0.0666529 -0.0517899 -0.0517899 2 2 3
0.0655755 -0.0518898 -0.0518898 2 2 3
0.0645143 -0.0519609 -0.0519609 2 2 3
0.0634704 -0.052004 -0.052004 2 2 3
0.0624446 -0.0520198 -0.0520198 2 2 3
0.0614378 -0.0520093 -0.0520093 2 2 3
0.0604509 -0.0519731 -0.0519731 2 2 3
0.0594844 -0.0519124 -0.0519124 2 2 3
0.0585391 -0.0518278 -0.0518278 2 2 3
0.0576156 -0.0517205 -0.0517205 2 2 3
0.0567144 -0.0515912 -0.0515912 2 2 3
0.055836 -0.051441 -0.051441 2 2 3
0.0549807 -0.0512708 -0.0512708 2 2 3
0.0541489 -0.0510816 -0.0510816 2 2 3
0.0533409 -0.0508743 -0.0508743 2 2 3
0.052557 -0.0506499 -0.0506499 2 2 3
0.0517972 -0.0504093 -0.0504093 2 2 3
0.0510617 -0.0501535 -0.0501535 2 2 3
0.0503506 -0.0498834 -0.0498834 2 2 3
0.0496639 -0.0496 -0.0496 2 2 3
0.0490016 -0.0493042 -0.0493042 2 2 3
0.0483635 -0.0489968 -0.0489968 2 2 3
0.0477496 -0.0486788 -0.0486788 2 2 3
0.0471598 -0.0483511 -0.0483511 2 2 3
0.0465937 -0.0480145 -0.0480145 2 2 3
0.0460513 -0.0476698 -0.0476698 2 2 3
0.0455322 -0.047318 -0.047318 2 2 3
0.0450362 -0.0469597 -0.0469597 2 2 3
0.0445629 -0.0465958 -0.0465958 2 2 3
0.044112 -0.046227 -0.046227 2 2 3
0.0436831 -0.0458541 -0.0458541 2 2 3
0.0432759 -0.0454779 -0.0454779 2 2 3
0.0428899 -0.045099 -0.045099 2 2 3
0.0425247 -0.0447181 -0.0447181 2 2 3
0.0421799 -0.0443359 -0.0443359 2 2 3
0.041855 -0.043953 -0.043953 2 2 3
0.0415495 -0.0435701 -0.0435701 2 2 3
0.041263 -0.0431878 -0.0431878 2 2 3
0.0409949 -0.0428066 -0.0428066 2 2 3
0.0407449 -0.0424272 -0.0424272 2 2 3
0.0405123 -0.0420501 -0.0420501 2 2 3
0.0402967 -0.0416757 -0.0416757 2 2 3
0.0400976 -0.0413047 -0.0413047 2 2 3
0.0399144 -0.0409375 -0.0409375 2 2 3
0.0397466 -0.0405745 -0.0405745 2 2 3
0.0395937 -0.0402161 -0.0402161 2 2 3
0.0394553 -0.0398629 -0.0398629 2 2 3
0.0393307 -0.039515 -0.039515 2 2 3
0.0392196 -0.039173 -0.039173 2 2 3
0.0391213 -0.0388371 -0.0388371 2 2 3
0.0390355 -0.0385076 -0.0385076 2 2 3
0.0389617 -0.0381848 -0.0381848 2 2 3
0.0388994 -0.0378688 -0.0378688 2 2 3
0.0388482 -0.03756 -0.03756 2 2 3
0.0388076 -0.0372584 -0.0372584 2 2 3
0.0387774 -0.0369642 -0.0369642 2 2 3
0.038757 -0.0366776 -0.0366776 2 2 3
0.0387463 -0.0363986 -0.0363986 2 2 3
0.0387448 -0.0361272 -0.0361272 2 2 3
0.0387524 -0.0358637 -0.0358637 2 2 3
0.0387687 -0.0356079 -0.0356079 2 2 3
0.0387936 -0.0353599 -0.0353599 2 2 3
0.038827 -0.0351198 -0.0351198 2 2 3
0.0388686 -0.0348875 -0.0348875 2 2 3
0.0389186 -0.0346632 -0.0346632 2 2 3
0.0389768 -0.0344469 -0.0344469 2 2 3
0.0390433 -0.0342386 -0.0342386 2 2 3
0.0391182 -0.0340386 -0.0340386 2 2 3
0.0392019 -0.0338471 -0.0338471 2 2 3
0.0392944 -0.0336644 -0.0336644 2 2 3
0.0393962 -0.0334908 -0.0334908 2 2 3
0.0395079 -0.0333271 -0.0333271 2 2 3
0.0396299 -0.0331738 -0.0331738 2 2 3
0.039763 -0.033032 -0.033032 2 2 3
0.0399083 -0.0329029 -0.0329029 2 2 3
0.0400668 -0.0327881 -0.0327881 2 2 3
0.0402398 -0.0326895 -0.0326895 2 2 3
0.0404289 -0.0326094 -0.0326094 2 2 3
0.040636 -0.0325505 -0.0325505 2 2 3
0.0408631 -0.0325155 -0.0325155 2 2 3
0.0411124 -0.0325073 -0.0325073 2 2 3
0.0413859 -0.0325278 -0.0325278 2 2 3
0.0416858 -0.0325783 -0.0325783 2 2 3
0.0420137 -0.0326582 -0.0326582 2 2 3
0.0423706 -0.032765 -0.032765 2 2 3
0.0427575 -0.032895 -0.032895 2 2 3
0.0431746 -0.0330434 -0.0330434 2 2 3
0.0436224 -0.0332049 -0.0332049 2 2 3
0.0441012 -0.0333746 -0.0333746 2 2 3
0.0446114 -0.0335484 -0.0335484 2 2 3
0.0451537 -0.0337224 -0.0337224 2 2 3
0.0457292 -0.0338939 -0.0338939 2 2 3
0.0463389 -0.0340603 -0.0340603 2 2 3
0.0469845 -0.0342198 -0.0342198 2 2 3
0.0476675 -0.034371 -0.034371 2 2 3
0.0483901 -0.0345127 -0.0345127 2 2 3
0.0491546 -0.0346437 -0.0346437 2 2 3
0.0499636 -0.0347635 -0.0347635 2 2 3
0.0508202 -0.0348713 -0.0348713 2 2 3
0.0517278 -0.0349667 -0.0349667 2 2 3
0.0526904 -0.0350493 -0.0350493 2 2 3
0.0537125 -0.0351187 -0.0351187 2 2 3
0.0547993 -0.0351748 -0.0351748 2 2 3
0.0559568 -0.0352176 -0.0352176 2 2 3
0.0571919 -0.0352469 -0.0352469 2 2 3
0.0585128 -0.0352631 -0.0352631 2 2 3
0.059929 -0.0352662 -0.0352662 2 2 3
0.0614515 -0.0352567 -0.0352567 2 2 3
0.0630933 -0.0352349 -0.0352349 2 2 3
0.06487 -0.0352014 -0.0352014 2 2 3
0.0667996 -0.0351568 -0.0351568 2 2 3
0.0689039 -0.0351017 -0.0351017 2 2 3
0.0712087 -0.0350368 -0.0350368 2 2 3
0.0737448 -0.0349627 -0.0349627 2 2 3
0.0765493 -0.0348802 -0.0348802 2 2 3
0.0796665 -0.0347898 -0.0347898 2 2 3
0.0831501 -0.0346916 -0.0346916 2 2 3
0.087065 -0.0345859 -0.0345859 2 2 3
0.0914897 -0.0344723 -0.0344723 2 2 3
0.09652 -0.03435 -0.03435 2 2 3
0.102272 -0.0342176 -0.0342176 2 2 3
0.108888 -0.0340729 -0.0340729 2 2 3
0.116541 -0.0339127 -0.0339127 2 2 3
0.125442 -0.0337327 -0.0337327 2 2 3
0.135846 -0.0335273 -0.0335273 2 2 3
0.148057 -0.0332894 -0.0332894 2 2 3
0.162438 -0.0330103 -0.0330103 2 2 3
0.179402 -0.03268 -0.03268 2 2 3
0.199412 -0.0322876 -0.0322876 2 2 3
0.222951 -0.0318219 -0.0318219 2 2 3
0.0454588 0.02 0.02 2 2 3
0.0454627 0.0199962 0.0199962 2 2 3
0.0454669 0.0199923 0.0199923 2 2 3
0.045475 0.0199846 0.0199846 2 2 3
0.0454913 0.0199692 0.0199692 2 2 3
0.0455116 0.0199499 0.0199499 2 2 3
0.0455319 0.0199308 0.0199308 2 2 3
0.0455522 0.0199116 0.0199116 2 2 3
0.0455725 0.0198925 0.0198925 2 2 3
0.0455928 0.0198735 0.0198735 2 2 3
0.0456131 0.0198545 0.0198545 2 2 3
0.0456334 0.0198355 0.0198355 2 2 3
0.0456536 0.0198166 0.0198166 2 2 3
0.0456738 0.0197977 0.0197977 2 2 3
0.0456941 0.0197789 0.0197789 2 2 3
0.0457143 0.0197601 0.0197601 2 2 3
0.0457345 0.0197414 0.0197414 2 2 3
0.0457547 0.0197227 0.0197227 2 2 3
0.0457749 0.019704 0.019704 2 2 3
0.045795 0.0196854 0.0196854 2 2 3
0.0458152 0.0196668 0.0196668 2 2 3
0.0458353 0.0196483 0.0196483 2 2 3
0.0458554 0.0196298 0.0196298 2 2 3
0.0458756 0.0196113 0.0196113 2 2 3
0.0458957 0.0195929 0.0195929 2 2 3
0.0459158 0.0195745 0.0195745 2 2 3
0.0459359 0.0195562 0.0195562 2 2 3
0.0459559 0.0195379 0.0195379 2 2 3
0.045976 0.0195196 0.0195196 2 2 3
0.045996 0.0195014 0.0195014 2 2 3
0.0460161 0.0194832 0.0194832 2 2 3
0.0460361 0.0194651 0.0194651 2 2 3
0.0460561 0.019447 0.019447 2 2 3
0.0460761 0.0194289 0.0194289 2 2 3
0.0460961 0.0194109 0.0194109 2 2 3
0.046116 0.0193929 0.0193929 2 2 3
0.046136 0.019375 0.019375 2 2 3
0.0461559 0.0193571 0.0193571 2 2 3
0.0461759 0.0193392 0.0193392 2 2 3
0.0461958 0.0193214 0.0193214 2 2 3
0.0462157 0.0193036 0.0193036 2 2 3
0.0462356 0.0192858 0.0192858 2 2 3
0.0462555 0.0192681 0.0192681 2 2 3
0.0462753 0.0192504 0.0192504 2 2 3
0.0462952 0.0192328 0.0192328 2 2 3
0.046315 0.0192152 0.0192152 2 2 3
0.0463349 0.0191976 0.0191976 2 2 3
0.0463547 0.0191801 0.0191801 2 2 3
0.0463745 0.0191626 0.0191626 2 2 3
0.0463943 0.0191451 0.0191451 2 2 3
0.046414 0.0191277 0.0191277 2 2 3
0.0464338 0.0191104 0.0191104 2 2 3
0.0464536 0.019093 0.019093 2 2 3
0.0464733 0.0190757 0.0190757 2 2 3
0.046493 0.0190584 0.0190584 2 2 3
0.0465127 0.0190412 0.0190412 2 2 3
0.0465324 0.019024 0.019024 2 2 3
0.0465521 0.0190068 0.0190068 2 2 3
0.0465718 0.0189897 0.0189897 2 2 3
0.0465914 0.0189726 0.0189726 2 2 3
0.0466111 0.0189556 0.0189556 2 2 3
0.0466307 0.0189385 0.0189385 2 2 3
0.0466503 0.0189215 0.0189215 2 2 3
0.0466699 0.0189046 0.0189046 2 2 3
0.0466895 0.0188877 0.0188877 2 2 3
0.0467091 0.0188708 0.0188708 2 2 3
0.0467286 0.018854 0.018854 2 2 3
0.0467482 0.0188371 0.0188371 2 2 3
0.0467677 0.0188204 0.0188204 2 2 3
0.0467872 0.0188036 0.0188036 2 2 3
0.0468067 0.0187869 0.0187869 2 2 3
0.0468262 0.0187702 0.0187702 2 2 3
0.0468457 0.0187536 0.0187536 2 2 3
0.0468652 0.018737 0.018737 2 2 3
0.0468846 0.0187204 0.0187204 2 2 3
0.046904 0.0187039 0.0187039 2 2 3
0.0469235 0.0186874 0.0186874 2 2 3
0.0469429 0.0186709 0.0186709 2 2 3
0.0469623 0.0186545 0.0186545 2 2 3
0.0469816 0.0186381 0.0186381 2 2 3
0.047001 0.0186217 0.0186217 2 2 3
0.0470203 0.0186054 0.0186054 2 2 3
0.0470397 0.018589 0.018589 2 2 3
0.047059 0.0185728 0.0185728 2 2 3
0.0470783 0.0185565 0.0185565 2 2 3
0.0470976 0.0185403 0.0185403 2 2 3
0.0471169 0.0185242 0.0185242 2 2 3
0.0471361 0.018508 0.018508 2 2 3
0.0471554 0.0184919 0.0184919 2 2 3
0.0471746 0.0184758 0.0184758 2 2 3
0.0471938 0.0184598 0.0184598 2 2 3
0.047213 0.0184438 0.0184438 2 2 3
0.0472322 0.0184278 0.0184278 2 2 3
0.0472514 0.0184118 0.0184118 2 2 3
0.0472705 0.0183959 0.0183959 2 2 3
0.0472897 0.01838 0.01838 2 2 3
0.0473088 0.0183642 0.0183642 2 2 3
0.0473279 0.0183484 0.0183484 2 2 3
0.047347 0.0183326 0.0183326 2 2 3
0.0473661 0.0183168 0.0183168 2 2 3
0.0473852 0.0183011 0.0183011 2 2 3
0.0474042 0.0182854 0.0182854 2 2 3
0.0474232 0.0182697 0.0182697 2 2 3
0.0474423 0.0182541 0.0182541 2 2 3
0.0474613 0.0182385 0.0182385 2 2 3
0.0474803 0.0182229 0.0182229 2 2 3
0.0474992 0.0182074 0.0182074 2 2 3
0.0475182 0.0181918 0.0181918 2 2 3
0.0475371 0.0181764 0.0181764 2 2 3
0.0475561 0.0181609 0.0181609 2 2 3
0.047575 0.0181455 0.0181455 2 2 3
0.0475939 0.0181301 0.0181301 2 2 3
0.0476128 0.0181147 0.0181147 2 2 3
0.0476316 0.0180994 0.0180994 2 2 3
0.0476505 0.0180841 0.0180841 2 2 3
0.0476693 0.0180688 0.0180688 2 2 3
0.0476881 0.0180536 0.0180536 2 2 3
0.047707 0.0180384 0.0180384 2 2 3
0.0477257 0.0180232 0.0180232 2 2 3
0.0477445 0.0180081 0.0180081 2 2 3
0.0477633 0.0179929 0.0179929 2 2 3
0.047782 0.0179778 0.0179778 2 2 3
0.0478007 0.0179628 0.0179628 2 2 3
0.0478195 0.0179478 0.0179478 2 2 3
0.0478382 0.0179327 0.0179327 2 2 3
0.0478568 0.0179178 0.0179178 2 2 3
0.0478755 0.0179028 0.0179028 2 2 3
0.0478941 0.0178879 0.0178879 2 2 3
0.0479128 0.017873 0.017873 2 2 3
0.0479314 0.0178582 0.0178582 2 2 3
0.04795 0.0178433 0.0178433 2 2 3
0.0479686 0.0178285 0.0178285 2 2 3
0.0479871 0.0178138 0.0178138 2 2 3
0.0480057 0.017799 0.017799 2 2 3
0.0480242 0.0177843 0.0177843 2 2 3
0.0480427 0.0177696 0.0177696 2 2 3
0.0480613 0.017755 0.017755 2 2 3
0.0480797 0.0177403 0.0177403 2 2 3
0.0480982 0.0177257 0.0177257 2 2 3
0.0481167 0.0177111 0.0177111 2 2 3
0.0481351 0.0176966 0.0176966 2 2 3
0.0481535 0.0176821 0.0176821 2 2 3
0.0481719 0.0176676 0.0176676 2 2 3
0.0481903 0.0176531 0.0176531 2 2 3
0.0482087 0.0176387 0.0176387 2 2 3
0.048227 0.0176243 0.0176243 2 2 3
0.0482454 0.0176099 0.0176099 2 2 3
0.0482637 0.0175956 0.0175956 2 2 3
0.048282 0.0175812 0.0175812 2 2 3
0.0483003 0.0175669 0.0175669 2 2 3
0.0483186 0.0175527 0.0175527 2 2 3
0.0483368 0.0175384 0.0175384 2 2 3
0.0483551 0.0175242 0.0175242 2 2 3
0.0483733 0.01751 0.01751 2 2 3
0.0483915 0.0174959 0.0174959 2 2 3
0.0484097 0.0174817 0.0174817 2 2 3
0.0484279 0.0174676 0.0174676 2 2 3
0.048446 0.0174535 0.0174535 2 2 3
0.0484642 0.0174395 0.0174395 2 2 3
0.0484823 0.0174255 0.0174255 2 2 3
0.0485004 0.0174115 0.0174115 2 2 3
0.0485185 0.0173975 0.0173975 2 2 3
0.0485366 0.0173835 0.0173835 2 2 3
0.0485546 0.0173696 0.0173696 2 2 3
0.0485727 0.0173557 0.0173557 2 2 3
0.0485907 0.0173418 0.0173418 2 2 3
0.0486087 0.017328 0.017328 2 2 3
0.0486267 0.0173142 0.0173142 2 2 3
0.0486447 0.0173004 0.0173004 2 2 3
0.0486626 0.0172866 0.0172866 2 2 3
0.0486806 0.0172729 0.0172729 2 2 3
0.0486985 0.0172592 0.0172592 2 2 3
0.0487164 0.0172455 0.0172455 2 2 3
0.0487343 0.0172319 0.0172319 2 2 3
0.0487521 0.0172182 0.0172182 2 2 3
0.04877 0.0172046 0.0172046 2 2 3
0.0487878 0.017191 0.017191 2 2 3
0.0488057 0.0171775 0.0171775 2 2 3
0.0488235 0.0171639 0.0171639 2 2 3
0.0488412 0.0171504 0.0171504 2 2 3
0.048859 0.017137 0.017137 2 2 3
0.0488768 0.0171235 0.0171235 2 2 3
0.0488945 0.0171101 0.0171101 2 2 3
0.0489122 0.0170967 0.0170967 2 2 3
0.0489299 0.0170833 0.0170833 2 2 3
0.0489476 0.0170699 0.0170699 2 2 3
0.0489653 0.0170566 0.0170566 2 2 3
0.0489829 0.0170433 0.0170433 2 2 3
0.0490005 0.01703 0.01703 2 2 3
0.0490182 0.0170168 0.0170168 2 2 3
0.0490357 0.0170036 0.0170036 2 2 3
0.0490533 0.0169904 0.0169904 2 2 3
0.0490709 0.0169772 0.0169772 2 2 3
0.0490884 0.016964 0.016964 2 2 3
0.049106 0.0169509 0.0169509 2 2 3
0.0491235 0.0169378 0.0169378 2 2 3
0.049141 0.0169247 0.0169247 2 2 3
0.0491584 0.0169117 0.0169117 2 2 3
0.0491759 0.0168986 0.0168986 2 2 3
0.0491933 0.0168856 0.0168856 2 2 3
0.0492107 0.0168726 0.0168726 2 2 3
0.0492281 0.0168597 0.0168597 2 2 3
0.0492455 0.0168467 0.0168467 2 2 3
0.0492629 0.0168338 0.0168338 2 2 3
0.0492803 0.0168209 0.0168209 2 2 3
0.0492976 0.0168081 0.0168081 2 2 3
0.0493149 0.0167952 0.0167952 2 2 3
0.0493322 0.0167824 0.0167824 2 2 3
0.0493495 0.0167696 0.0167696 2 2 3
0.0493667 0.0167569 0.0167569 2 2 3
0.049384 0.0167441 0.0167441 2 2 3
0.0494012 0.0167314 0.0167314 2 2 3
0.0494184 0.0167187 0.0167187 2 2 3
0.0494356 0.0167061 0.0167061 2 2 3
0.0494528 0.0166934 0.0166934 2 2 3
0.04947 0.0166808 0.0166808 2 2 3
0.0494871 0.0166682 0.0166682 2 2 3
0.0495042 0.0166556 0.0166556 2 2 3
0.0495213 0.0166431 0.0166431 2 2 3
0.0495384 0.0166305 0.0166305 2 2 3
0.0495555 0.016618 0.016618 2 2 3
0.0495725 0.0166055 0.0166055 2 2 3
0.0495896 0.0165931 0.0165931 2 2 3
0.0496066 0.0165806 0.0165806 2 2 3
0.0496236 0.0165682 0.0165682 2 2 3
0.0496405 0.0165558 0.0165558 2 2 3
0.0496575 0.0165435 0.0165435 2 2 3
0.0496745 0.0165311 0.0165311 2 2 3
0.0496914 0.0165188 0.0165188 2 2 3
0.0497083 0.0165065 0.0165065 2 2 3
0.0497252 0.0164942 0.0164942 2 2 3
0.049742 0.016482 0.016482 2 2 3
0.0497589 0.0164697 0.0164697 2 2 3
0.0497757 0.0164575 0.0164575 2 2 3
0.0497926 0.0164454 0.0164454 2 2 3
0.0498094 0.0164332 0.0164332 2 2 3
0.0498261 0.0164211 0.0164211 2 2 3
0.0498429 0.0164089 0.0164089 2 2 3
0.0498597 0.0163968 0.0163968 2 2 3
0.0498764 0.0163848 0.0163848 2 2 3
0.0498931 0.0163727 0.0163727 2 2 3
0.0499098 0.0163607 0.0163607 2 2 3
0.0499265 0.0163487 0.0163487 2 2 3
0.0499431 0.0163367 0.0163367 2 2 3
0.0499598 0.0163247 0.0163247 2 2 3
0.0499764 0.0163128 0.0163128 2 2 3
0.049993 0.0163009 0.0163009 2 2 3
0.0500096 0.016289 0.016289 2 2 3
0.0500261 0.0162771 0.0162771 2 2 3
0.0500427 0.0162653 0.0162653 2 2 3
0.0500592 0.0162534 0.0162534 2 2 3
0.0500757 0.0162416 0.0162416 2 2 3
0.0500922 0.0162298 0.0162298 2 2 3
0.0501087 0.0162181 0.0162181 2 2 3
0.0501252 0.0162063 0.0162063 2 2 3
0.0501416 0.0161946 0.0161946 2 2 3
0.050158 0.0161829 0.0161829 2 2 3
0.0501744 0.0161712 0.0161712 2 2 3
0.0501908 0.0161596 0.0161596 2 2 3
0.0502072 0.0161479 0.0161479 2 2 3
0.0502235 0.0161363 0.0161363 2 2 3
0.0502399 0.0161247 0.0161247 2 2 3
0.0502562 0.0161131 0.0161131 2 2 3
0.0502725 0.0161016 0.0161016 2 2 3
0.0502888 0.0160901 0.0160901 2 2 3
0.050305 0.0160786 0.0160786 2 2 3
0.0503213 0.0160671 0.0160671 2 2 3
0.0503375 0.0160556 0.0160556 2 2 3
0.0503537 0.0160442 0.0160442 2 2 3
0.0503699 0.0160327 0.0160327 2 2 3
0.050386 0.0160213 0.0160213 2 2 3
0.0504022 0.01601 0.01601 2 2 3
0.0504183 0.0159986 0.0159986 2 2 3
0.0504344 0.0159873 0.0159873 2 2 3
0.0504505 0.0159759 0.0159759 2 2 3
0.0504666 0.0159646 0.0159646 2 2 3
0.0504827 0.0159534 0.0159534 2 2 3
0.0504987 0.0159421 0.0159421 2 2 3
0.0505148 0.0159309 0.0159309 2 2 3
0.0505308 0.0159197 0.0159197 2 2 3
0.0505467 0.0159085 0.0159085 2 2 3
0.0505627 0.0158973 0.0158973 2 2 3
0.0505787 0.0158861 0.0158861 2 2 3
0.0505946 0.015875 0.015875 2 2 3
0.0506105 0.0158639 0.0158639 2 2 3
0.0506264 0.0158528 0.0158528 2 2 3
0.0506423 0.0158417 0.0158417 2 2 3
0.0506582 0.0158307 0.0158307 2 2 3
0.050674 0.0158196 0.0158196 2 2 3
0.0506898 0.0158086 0.0158086 2 2 3
0.0507056 0.0157976 0.0157976 2 2 3
0.0507214 0.0157867 0.0157867 2 2 3
0.0507372 0.0157757 0.0157757 2 2 3
0.0507529 0.0157648 0.0157648 2 2 3
0.0507687 0.0157539 0.0157539 2 2 3
0.0507844 0.015743 0.015743 2 2 3
0.0508001 0.0157321 0.0157321 2 2 3
0.0508158 0.0157212 0.0157212 2 2 3
0.0508314 0.0157104 0.0157104 2 2 3
0.0508471 0.0156996 0.0156996 2 2 3
0.0508627 0.0156888 0.0156888 2 2 3
0.0508783 0.015678 0.015678 2 2 3
0.0508939 0.0156673 0.0156673 2 2 3
0.0509095 0.0156565 0.0156565 2 2 3
0.050925 0.0156458 0.0156458 2 2 3
0.0509406 0.0156351 0.0156351 2 2 3
0.0509561 0.0156245 0.0156245 2 2 3
0.0509716 0.0156138 0.0156138 2 2 3
0.0509871 0.0156032 0.0156032 2 2 3
0.0510025 0.0155926 0.0155926 2 2 3
0.051018 0.015582 0.015582 2 2 3
0.0510334 0.0155714 0.0155714 2 2 3
0.0510488 0.0155608 0.0155608 2 2 3
0.0510642 0.0155503 0.0155503 2 2 3
0.0510796 0.0155398 0.0155398 2 2 3
0.0510949 0.0155293 0.0155293 2 2 3
0.0511103 0.0155188 0.0155188 2 2 3
0.0511256 0.0155083 0.0155083 2 2 3
0.0511409 0.0154979 0.0154979 2 2 3
0.0511562 0.0154874 0.0154874 2 2 3
0.0511714 0.015477 0.015477 2 2 3
0.0511867 0.0154666 0.0154666 2 2 3
0.0512019 0.0154563 0.0154563 2 2 3
0.0512171 0.0154459 0.0154459 2 2 3
0.0512323 0.0154356 0.0154356 2 2 3
0.0512475 0.0154253 0.0154253 2 2 3
0.0512626 0.015415 0.015415 2 2 3
0.0512778 0.0154047 0.0154047 2 2 3
0.0512929 0.0153945 0.0153945 2 2 3
0.051308 0.0153842 0.0153842 2 2 3
0.0513231 0.015374 0.015374 2 2 3
0.0513381 0.0153638 0.0153638 2 2 3
0.0513532 0.0153536 0.0153536 2 2 3
0.0513682 0.0153435 0.0153435 2 2 3
0.0513832 0.0153333 0.0153333 2 2 3
0.0513982 0.0153232 0.0153232 2 2 3
0.0514132 0.0153131 0.0153131 2 2 3
0.0514281 0.015303 0.015303 2 2 3
0.0514431 0.0152929 0.0152929 2 2 3
0.051458 0.0152829 0.0152829 2 2 3
0.0514729 0.0152728 0.0152728 2 2 3
0.0514878 0.0152628 0.0152628 2 2 3
0.0515026 0.0152528 0.0152528 2 2 3
0.0515175 0.0152428 0.0152428 2 2 3
0.0515323 0.0152329 0.0152329 2 2 3
0.0515471 0.0152229 0.0152229 2 2 3
0.0515619 0.015213 0.015213 2 2 3
0.0515767 0.0152031 0.0152031 2 2 3
0.0515915 0.0151932 0.0151932 2 2 3
0.0516062 0.0151833 0.0151833 2 2 3
0.0516209 0.0151735 0.0151735 2 2 3
0.0516356 0.0151636 0.0151636 2 2 3
0.0516503 0.0151538 0.0151538 2 2 3
0.051665 0.015144 0.015144 2 2 3
0.0516796 0.0151342 0.0151342 2 2 3
0.0516943 0.0151244 0.0151244 2 2 3
0.0517089 0.0151147 0.0151147 2 2 3
0.0517235 0.015105 0.015105 2 2 3
0.0517381 0.0150952 0.0150952 2 2 3
0.0517526 0.0150855 0.0150855 2 2 3
0.0517672 0.0150759 0.0150759 2 2 3
0.0517817 0.0150662 0.0150662 2 2 3
0.0517962 0.0150566 0.0150566 2 2 3
0.0518107 0.0150469 0.0150469 2 2 3
0.0518252 0.0150373 0.0150373 2 2 3
0.0518396 0.0150277 0.0150277 2 2 3
0.0518541 0.0150182 0.0150182 2 2 3
0.0518685 0.0150086 0.0150086 2 2 3
0.0518829 0.0149991 0.0149991 2 2 3
0.0518973 0.0149895 0.0149895 2 2 3
0.0519116 0.01498 0.01498 2 2 3
0.051926 0.0149705 0.0149705 2 2 3
0.0519403 0.0149611 0.0149611 2 2 3
0.0519546 0.0149516 0.0149516 2 2 3
0.0519689 0.0149422 0.0149422 2 2 3
0.0519832 0.0149328 0.0149328 2 2 3
0.0519975 0.0149233 0.0149233 2 2 3
0.0520117 0.014914 0.014914 2 2 3
0.0520259 0.0149046 0.0149046 2 2 3
0.0520401 0.0148952 0.0148952 2 2 3
0.0520543 0.0148859 0.0148859 2 2 3
0.0520685 0.0148766 0.0148766 2 2 3
0.0520826 0.0148673 0.0148673 2 2 3
0.0520968 0.014858 0.014858 2 2 3
0.0521109 0.0148487 0.0148487 2 2 3
0.052125 0.0148395 0.0148395 2 2 3
0.0521391 0.0148302 0.0148302 2 2 3
0.0521531 0.014821 0.014821 2 2 3
0.0521672 0.0148118 0.0148118 2 2 3
0.0521812 0.0148026 0.0148026 2 2 3
0.0521952 0.0147934 0.0147934 2 2 3
0.0522092 0.0147843 0.0147843 2 2 3
0.0522232 0.0147752 0.0147752 2 2 3
0.0522372 0.014766 0.014766 2 2 3
0.0522511 0.0147569 0.0147569 2 2 3
0.052265 0.0147478 0.0147478 2 2 3
0.0522789 0.0147388 0.0147388 2 2 3
0.0522928 0.0147297 0.0147297 2 2 3
0.0523067 0.0147207 0.0147207 2 2 3
0.0523206 0.0147116 0.0147116 2 2 3
0.0523344 0.0147026 0.0147026 2 2 3
0.0523482 0.0146936 0.0146936 2 2 3
0.052362 0.0146847 0.0146847 2 2 3
0.0523758 0.0146757 0.0146757 2 2 3
0.0523896 0.0146668 0.0146668 2 2 3
0.0524033 0.0146578 0.0146578 2 2 3
0.052417 0.0146489 0.0146489 2 2 3
0.0524308 0.01464 0.01464 2 2 3
0.0524445 0.0146312 0.0146312 2 2 3
0.0524581 0.0146223 0.0146223 2 2 3
0.0524718 0.0146134 0.0146134 2 2 3
0.0524854 0.0146046 0.0146046 2 2 3
0.0524991 0.0145958 0.0145958 2 2 3
0.0525127 0.014587 0.014587 2 2 3
0.0525263 0.0145782 0.0145782 2 2 3
0.0525399 0.0145694 0.0145694 2 2 3
0.0525534 0.0145607 0.0145607 2 2 3
0.052567 0.0145519 0.0145519 2 2 3
0.0525805 0.0145432 0.0145432 2 2 3
0.052594 0.0145345 0.0145345 2 2 3
0.0526075 0.0145258 0.0145258 2 2 3
0.0526209 0.0145171 0.0145171 2 2 3
0.0526344 0.0145085 0.0145085 2 2 3
0.0526478 0.0144998 0.0144998 2 2 3
0.0526613 0.0144912 0.0144912 2 2 3
0.0526747 0.0144826 0.0144826 2 2 3
0.0526881 0.014474 0.014474 2 2 3
0.0527014 0.0144654 0.0144654 2 2 3
0.0527148 0.0144568 0.0144568 2 2 3
0.0527281 0.0144483 0.0144483 2 2 3
0.0527414 0.0144397 0.0144397 2 2 3
0.0527547 0.0144312 0.0144312 2 2 3
0.052768 0.0144227 0.0144227 2 2 3
0.0527813 0.0144142 0.0144142 2 2 3
0.0527945 0.0144057 0.0144057 2 2 3
0.0528078 0.0143973 0.0143973 2 2 3
0.052821 0.0143888 0.0143888 2 2 3
0.0528342 0.0143804 0.0143804 2 2 3
0.0528474 0.014372 0.014372 2 2 3
0.0528605 0.0143636 0.0143636 2 2 3
0.0528737 0.0143552 0.0143552 2 2 3
0.0528868 0.0143468 0.0143468 2 2 3
0.0528999 0.0143385 0.0143385 2 2 3
0.052913 0.0143301 0.0143301 2 2 3
0.0529261 0.0143218 0.0143218 2 2 3
0.0529392 0.0143135 0.0143135 2 2 3
0.0529522 0.0143052 0.0143052 2 2 3
0.0529652 0.0142969 0.0142969 2 2 3
0.0529783 0.0142886 0.0142886 2 2 3
0.0529912 0.0142804 0.0142804 2 2 3
0.0530042 0.0142721 0.0142721 2 2 3
0.0530172 0.0142639 0.0142639 2 2 3
0.0530301 0.0142557 0.0142557 2 2 3
0.0530431 0.0142475 0.0142475 2 2 3
0.053056 0.0142393 0.0142393 2 2 3
0.0530689 0.0142311 0.0142311 2 2 3
0.0530817 0.014223 0.014223 2 2 3
0.0530946 0.0142148 0.0142148 2 2 3
0.0531075 0.0142067 0.0142067 2 2 3
0.0531203 0.0141986 0.0141986 2 2 3
0.0531331 0.0141905 0.0141905 2 2 3
0.0531459 0.0141824 0.0141824 2 2 3
0.0531587 0.0141744 0.0141744 2 2 3
0.0531714 0.0141663 0.0141663 2 2 3
0.0531842 0.0141583 0.0141583 2 2 3
0.0531969 0.0141503 0.0141503 2 2 3
0.0532096 0.0141422 0.0141422 2 2 3
0.0532223 0.0141342 0.0141342 2 2 3
0.053235 0.0141263 0.0141263 2 2 3
0.0532476 0.0141183 0.0141183 2 2 3
0.0532603 0.0141103 0.0141103 2 2 3
0.0532729 0.0141024 0.0141024 2 2 3
0.0532855 0.0140945 0.0140945 2 2 3
0.0532981 0.0140866 0.0140866 2 2 3
0.0533107 0.0140787 0.0140787 2 2 3
0.0533233 0.0140708 0.0140708 2 2 3
0.0533358 0.0140629 0.0140629 2 2 3
0.0533483 0.014055 0.014055 2 2 3
0.0533609 0.0140472 0.0140472 2 2 3
0.0533734 0.0140394 0.0140394 2 2 3
0.0533858 0.0140316 0.0140316 2 2 3
0.0533983 0.0140238 0.0140238 2 2 3
0.0534108 0.014016 0.014016 2 2 3
0.0534232 0.0140082 0.0140082 2 2 3
0.0534356 0.0140004 0.0140004 2 2 3
0.053448 0.0139927 0.0139927 2 2 3
0.0534604 0.013985 0.013985 2 2 3
0.0534727 0.0139772 0.0139772 2 2 3
0.0534851 0.0139695 0.0139695 2 2 3
0.0534974 0.0139618 0.0139618 2 2 3
0.0535097 0.0139542 0.0139542 2 2 3
0.053522 0.0139465 0.0139465 2 2 3
0.0535343 0.0139388 0.0139388 2 2 3
0.0535466 0.0139312 0.0139312 2 2 3
0.0535589 0.0139236 0.0139236 2 2 3
0.0535711 0.013916 0.013916 2 2 3
0.0535833 0.0139084 0.0139084 2 2 3
0.0535955 0.0139008 0.0139008 2 2 3
0.0536077 0.0138932 0.0138932 2 2 3
0.0536199 0.0138856 0.0138856 2 2 3
0.053632 0.0138781 0.0138781 2 2 3
0.0536442 0.0138706 0.0138706 2 2 3
0.0536563 0.013863 0.013863 2 2 3
0.0536684 0.0138555 0.0138555 2 2 3
0.0536805 0.013848 0.013848 2 2 3
0.0536926 0.0138406 0.0138406 2 2 3
0.0537046 0.0138331 0.0138331 2 2 3
0.0537167 0.0138256 0.0138256 2 2 3
0.0537287 0.0138182 0.0138182 2 2 3
0.0537407 0.0138108 0.0138108 2 2 3
0.0537527 0.0138034 0.0138034 2 2 3
0.0537647 0.013796 0.013796 2 2 3
0.0537767 0.0137886 0.0137886 2 2 3
0.0537886 0.0137812 0.0137812 2 2 3
0.0538005 0.0137738 0.0137738 2 2 3
0.0538125 0.0137665 0.0137665 2 2 3
0.0538244 0.0137591 0.0137591 2 2 3
0.0538362 0.0137518 0.0137518 2 2 3
0.0538481 0.0137445 0.0137445 2 2 3
0.05386 0.0137372 0.0137372 2 2 3
0.0538718 0.0137299 0.0137299 2 2 3
0.0538836 0.0137226 0.0137226 2 2 3
0.0538954 0.0137154 0.0137154 2 2 3
0.0539072 0.0137081 0.0137081 2 2 3
0.053919 0.0137009 0.0137009 2 2 3
0.0539308 0.0136937 0.0136937 2 2 3
0.0539425 0.0136865 0.0136865 2 2 3
0.0539542 0.0136793 0.0136793 2 2 3
0.0539659 0.0136721 0.0136721 2 2 3
0.0539776 0.0136649 0.0136649 2 2 3
0.0539893 0.0136577 0.0136577 2 2 3
0.054001 0.0136506 0.0136506 2 2 3
0.0540126 0.0136435 0.0136435 2 2 3
0.0540243 0.0136363 0.0136363 2 2 3
0.0540359 0.0136292 0.0136292 2 2 3
0.0540475 0.0136221 0.0136221 2 2 3
0.0540591 0.013615 0.013615 2 2 3
0.0540707 0.013608 0.013608 2 2 3
0.0540822 0.0136009 0.0136009 2 2 3
0.0540938 0.0135938 0.0135938 2 2 3
0.0541053 0.0135868 0.0135868 2 2 3
0.0541168 0.0135798 0.0135798 2 2 3
0.0541283 0.0135728 0.0135728 2 2 3
0.0541398 0.0135658 0.0135658 2 2 3
0.0541512 0.0135588 0.0135588 2 2 3
0.0541627 0.0135518 0.0135518 2 2 3
0.0541741 0.0135448 0.0135448 2 2 3
0.0541855 0.0135379 0.0135379 2 2 3
0.054197 0.0135309 0.0135309 2 2 3
0.0542083 0.013524 0.013524 2 2 3
0.0542197 0.0135171 0.0135171 2 2 3
0.0542311 0.0135102 0.0135102 2 2 3
0.0542424 0.0135033 0.0135033 2 2 3
0.0542537 0.0134964 0.0134964 2 2 3
0.0542651 0.0134895 0.0134895 2 2 3
0.0542764 0.0134827 0.0134827 2 2 3
0.0542876 0.0134758 0.0134758 2 2 3
0.0542989 0.013469 0.013469 2 2 3
0.0543102 0.0134622 0.0134622 2 2 3
0.0543214 0.0134554 0.0134554 2 2 3
0.0543326 0.0134486 0.0134486 2 2 3
0.0543438 0.0134418 0.0134418 2 2 3
0.054355 0.013435 0.013435 2 2 3
0.0543662 0.0134282 0.0134282 2 2 3
0.0543774 0.0134215 0.0134215 2 2 3
0.0543885 0.0134148 0.0134148 2 2 3
0.0543996 0.013408 0.013408 2 2 3
0.0544108 0.0134013 0.0134013 2 2 3
0.0544219 0.0133946 0.0133946 2 2 3
0.0544329 0.0133879 0.0133879 2 2 3
0.054444 0.0133812 0.0133812 2 2 3
0.0544551 0.0133746 0.0133746 2 2 3
0.0544661 0.0133679 0.0133679 2 2 3
0.0544771 0.0133612 0.0133612 2 2 3
0.0544882 0.0133546 0.0133546 2 2 3
0.0544992 0.013348 0.013348 2 2 3
0.0545101 0.0133414 0.0133414 2 2 3
0.0545211 0.0133348 0.0133348 2 2 3
0.0545321 0.0133282 0.0133282 2 2 3
0.054543 0.0133216 0.0133216 2 2 3
0.0545539 0.013315 0.013315 2 2 3
0.0545648 0.0133085 0.0133085 2 2 3
0.0545757 0.0133019 0.0133019 2 2 3
0.0545866 0.0132954 0.0132954 2 2 3
0.0545975 0.0132889 0.0132889 2 2 3
0.0546083 0.0132823 0.0132823 2 2 3
0.0546192 0.0132758 0.0132758 2 2 3
0.05463 0.0132694 0.0132694 2 2 3
0.0546408 0.0132629 0.0132629 2 2 3
0.0546516 0.0132564 0.0132564 2 2 3
0.0546624 0.0132499 0.0132499 2 2 3
0.0546731 0.0132435 0.0132435 2 2 3
0.0546839 0.0132371 0.0132371 2 2 3
0.0546946 0.0132306 0.0132306 2 2 3
0.0547053 0.0132242 0.0132242 2 2 3
0.054716 0.0132178 0.0132178 2 2 3
0.0547267 0.0132114 0.0132114 2 2 3
0.0547374 0.0132051 0.0132051 2 2 3
0.0547481 0.0131987 0.0131987 2 2 3
0.0547587 0.0131923 0.0131923 2 2 3
0.0547694 0.013186 0.013186 2 2 3
0.05478 0.0131796 0.0131796 2 2 3
0.0547906 0.0131733 0.0131733 2 2 3
0.0548012 0.013167 0.013167 2 2 3
0.0548117 0.0131607 0.0131607 2 2 3
0.0548223 0.0131544 0.0131544 2 2 3
0.0548329 0.0131481 0.0131481 2 2 3
0.0548434 0.0131418 0.0131418 2 2 3
0.0548539 0.0131356 0.0131356 2 2 3
0.0548644 0.0131293 0.0131293 2 2 3
0.0548749 0.0131231 0.0131231 2 2 3
0.0548854 0.0131169 0.0131169 2 2 3
0.0548958 0.0131106 0.0131106 2 2 3
0.0549063 0.0131044 0.0131044 2 2 3
0.0549167 0.0130982 0.0130982 2 2 3
0.0549272 0.013092 0.013092 2 2 3
0.0549376 0.0130859 0.0130859 2 2 3
0.0549479 0.0130797 0.0130797 2 2 3
0.0549583 0.0130735 0.0130735 2 2 3
0.0549687 0.0130674 0.0130674 2 2 3
0.054979 0.0130613 0.0130613 2 2 3
0.0549894 0.0130551 0.0130551 2 2 3
0.0549997 0.013049 0.013049 2 2 3
0.05501 0.0130429 0.0130429 2 2 3
0.0550203 0.0130368 0.0130368 2 2 3
0.0550306 0.0130307 0.0130307 2 2 3
0.0550409 0.0130247 0.0130247 2 2 3
0.0550511 0.0130186 0.0130186 2 2 3
0.0550613 0.0130125 0.0130125 2 2 3
0.0550716 0.0130065 0.0130065 2 2 3
0.0550818 0.0130005 0.0130005 2 2 3
0.055092 0.0129944 0.0129944 2 2 3
0.0551022 0.0129884 0.0129884 2 2 3
0.0551123 0.0129824 0.0129824 2 2 3
0.0551225 0.0129764 0.0129764 2 2 3
0.0551326 0.0129704 0.0129704 2 2 3
0.0551428 0.0129645 0.0129645 2 2 3
0.0551529 0.0129585 0.0129585 2 2 3
0.055163 0.0129526 0.0129526 2 2 3
0.0551731 0.0129466 0.0129466 2 2 3
0.0551831 0.0129407 0.0129407 2 2 3
0.0551932 0.0129348 0.0129348 2 2 3
0.0552032 0.0129289 0.0129289 2 2 3
0.0552133 0.012923 0.012923 2 2 3
0.0552233 0.0129171 0.0129171 2 2 3
0.0552333 0.0129112 0.0129112 2 2 3
0.0552433 0.0129053 0.0129053 2 2 3
0.0552533 0.0128994 0.0128994 2 2 3
0.0552632 0.0128936 0.0128936 2 2 3
0.0552732 0.0128877 0.0128877 2 2 3
0.0552831 0.0128819 0.0128819 2 2 3
0.0552931 0.0128761 0.0128761 2 2 3
0.055303 0.0128703 0.0128703 2 2 3
0.0553129 0.0128645 0.0128645 2 2 3
0.0553228 0.0128587 0.0128587 2 2 3
0.0553326 0.0128529 0.0128529 2 2 3
0.0553425 0.0128471 0.0128471 2 2 3
0.0553523 0.0128414 0.0128414 2 2 3
0.0553622 0.0128356 0.0128356 2 2 3
0.055372 0.0128299 0.0128299 2 2 3
0.0553818 0.0128241 0.0128241 2 2 3
0.0553916 0.0128184 0.0128184 2 2 3
0.0554014 0.0128127 0.0128127 2 2 3
0.0554111 0.012807 0.012807 2 2 3
0.0554209 0.0128013 0.0128013 2 2 3
0.0554306 0.0127956 0.0127956 2 2 3
0.0554403 0.0127899 0.0127899 2 2 3
0.05545 0.0127842 0.0127842 2 2 3
0.0554597 0.0127786 0.0127786 2 2 3
0.0554694 0.0127729 0.0127729 2 2 3
0.0554791 0.0127673 0.0127673 2 2 3
0.0554888 0.0127616 0.0127616 2 2 3
0.0554984 0.012756 0.012756 2 2 3
0.055508 0.0127504 0.0127504 2 2 3
0.0555177 0.0127448 0.0127448 2 2 3
0.0555273 0.0127392 0.0127392 2 2 3
0.0555369 0.0127336 0.0127336 2 2 3
0.0555464 0.0127281 0.0127281 2 2 3
0.055556 0.0127225 0.0127225 2 2 3
0.0555656 0.0127169 0.0127169 2 2 3
0.0555751 0.0127114 0.0127114 2 2 3
0.0555846 0.0127058 0.0127058 2 2 3
0.0555942 0.0127003 0.0127003 2 2 3
0.0556037 0.0126948 0.0126948 2 2 3
0.0556132 0.0126893 0.0126893 2 2 3
0.0556226 0.0126838 0.0126838 2 2 3
0.0556321 0.0126783 0.0126783 2 2 3
0.0556415 0.0126728 0.0126728 2 2 3
0.055651 0.0126673 0.0126673 2 2 3
0.0556604 0.0126619 0.0126619 2 2 3
0.0556698 0.0126564 0.0126564 2 2 3
0.0556792 0.012651 0.012651 2 2 3
0.0556886 0.0126455 0.0126455 2 2 3
0.055698 0.0126401 0.0126401 2 2 3
0.0557074 0.0126347 0.0126347 2 2 3
0.0557167 0.0126293 0.0126293 2 2 3
0.055726 0.0126239 0.0126239 2 2 3
0.0557354 0.0126185 0.0126185 2 2 3
0.0557447 0.0126131 0.0126131 2 2 3
0.055754 0.0126077 0.0126077 2 2 3
0.0557633 0.0126023 0.0126023 2 2 3
0.0557725 0.012597 0.012597 2 2 3
0.0557818 0.0125916 0.0125916 2 2 3
0.0557911 0.0125863 0.0125863 2 2 3
0.0558003 0.012581 0.012581 2 2 3
0.0558095 0.0125756 0.0125756 2 2 3
0.0558187 0.0125703 0.0125703 2 2 3
0.0558279 0.012565 0.012565 2 2 3
0.0558371 0.0125597 0.0125597 2 2 3
0.0558463 0.0125544 0.0125544 2 2 3
0.0558555 0.0125492 0.0125492 2 2 3
0.0558646 0.0125439 0.0125439 2 2 3
0.0558737 0.0125386 0.0125386 2 2 3
0.0558829 0.0125334 0.0125334 2 2 3
0.055892 0.0125281 0.0125281 2 2 3
0.0559011 0.0125229 0.0125229 2 2 3
0.0559102 0.0125177 0.0125177 2 2 3
0.0559192 0.0125124 0.0125124 2 2 3
0.0559283 0.0125072 0.0125072 2 2 3
0.0559374 0.012502 0.012502 2 2 3
0.0559464 0.0124968 0.0124968 2 2 3
0.0559554 0.0124917 0.0124917 2 2 3
0.0559644 0.0124865 0.0124865 2 2 3
0.0559734 0.0124813 0.0124813 2 2 3
0.0559824 0.0124762 0.0124762 2 2 3
0.0559914 0.012471 0.012471 2 2 3
0.0560004 0.0124659 0.0124659 2 2 3
0.0560093 0.0124607 0.0124607 2 2 3
0.0560183 0.0124556 0.0124556 2 2 3
0.0560272 0.0124505 0.0124505 2 2 3
0.0560361 0.0124454 0.0124454 2 2 3
0.056045 0.0124403 0.0124403 2 2 3
0.0560539 0.0124352 0.0124352 2 2 3
0.0560628 0.0124301 0.0124301 2 2 3
0.0560717 0.012425 0.012425 2 2 3
0.0560805 0.01242 0.01242 2 2 3
0.0560894 0.0124149 0.0124149 2 2 3
0.0560982 0.0124099 0.0124099 2 2 3
0.056107 0.0124048 0.0124048 2 2 3
0.0561158 0.0123998 0.0123998 2 2 3
0.0561246 0.0123948 0.0123948 2 2 3
0.0561334 0.0123897 0.0123897 2 2 3
0.0561422 0.0123847 0.0123847 2 2 3
0.0561509 0.0123797 0.0123797 2 2 3
0.0561597 0.0123747 0.0123747 2 2 3
0.0561684 0.0123698 0.0123698 2 2 3
0.0561772 0.0123648 0.0123648 2 2 3
0.0561859 0.0123598 0.0123598 2 2 3
0.0561946 0.0123548 0.0123548 2 2 3
0.0562033 0.0123499 0.0123499 2 2 3
0.056212 0.012345 0.012345 2 2 3
0.0562206 0.01234 0.01234 2 2 3
0.0562293 0.0123351 0.0123351 2 2 3
0.0562379 0.0123302 0.0123302 2 2 3
0.0562466 0.0123253 0.0123253 2 2 3
0.0562552 0.0123204 0.0123204 2 2 3
0.0562638 0.0123155 0.0123155 2 2 3
0.0562724 0.0123106 0.0123106 2 2 3
0.056281 0.0123057 0.0123057 2 2 3
0.0562895 0.0123008 0.0123008 2 2 3
0.0562981 0.0122959 0.0122959 2 2 3
0.0563067 0.0122911 0.0122911 2 2 3
0.0563152 0.0122862 0.0122862 2 2 3
0.0563237 0.0122814 0.0122814 2 2 3
0.0563322 0.0122766 0.0122766 2 2 3
0.0563407 0.0122717 0.0122717 2 2 3
0.0563492 0.0122669 0.0122669 2 2 3
0.0563577 0.0122621 0.0122621 2 2 3
0.0563662 0.0122573 0.0122573 2 2 3
0.0563746 0.0122525 0.0122525 2 2 3
0.0563831 0.0122477 0.0122477 2 2 3
0.0563915 0.012243 0.012243 2 2 3
0.0564 0.0122382 0.0122382 2 2 3
0.0564084 0.0122334 0.0122334 2 2 3
0.0564168 0.0122287 0.0122287 2 2 3
0.0564252 0.0122239 0.0122239 2 2 3
0.0564335 0.0122192 0.0122192 2 2 3
0.0564419 0.0122144 0.0122144 2 2 3
0.0564503 0.0122097 0.0122097 2 2 3
0.0564586 0.012205 0.012205 2 2 3
0.0564669 0.0122003 0.0122003 2 2 3
0.0564753 0.0121956 0.0121956 2 2 3
0.0564836 0.0121909 0.0121909 2 2 3
0.0564919 0.0121862 0.0121862 2 2 3
0.0565002 0.0121815 0.0121815 2 2 3
0.0565084 0.0121769 0.0121769 2 2 3
0.0565167 0.0121722 0.0121722 2 2 3
0.056525 0.0121675 0.0121675 2 2 3
0.0565332 0.0121629 0.0121629 2 2 3
0.0565415 0.0121582 0.0121582 2 2 3
0.0565497 0.0121536 0.0121536 2 2 3
0.0565579 0.012149 0.012149 2 2 3
0.0565661 0.0121444 0.0121444 2 2 3
0.0565743 0.0121397 0.0121397 2 2 3
0.0565825 0.0121351 0.0121351 2 2 3
0.0565906 0.0121305 0.0121305 2 2 3
0.0565988 0.012126 0.012126 2 2 3
0.0566069 0.0121214 0.0121214 2 2 3
0.0566151 0.0121168 0.0121168 2 2 3
0.0566232 0.0121122 0.0121122 2 2 3
0.0566313 0.0121077 0.0121077 2 2 3
0.0566394 0.0121031 0.0121031 2 2 3
0.0566475 0.0120986 0.0120986 2 2 3
0.0566556 0.012094 0.012094 2 2 3
0.0566636 0.0120895 0.0120895 2 2 3
0.0566717 0.012085 0.012085 2 2 3
0.0566797 0.0120805 0.0120805 2 2 3
0.0566878 0.0120759 0.0120759 2 2 3
0.0566958 0.0120714 0.0120714 2 2 3
0.0567038 0.0120669 0.0120669 2 2 3
0.0567118 0.0120625 0.0120625 2 2 3
0.0567198 0.012058 0.012058 2 2 3
0.0567278 0.0120535 0.0120535 2 2 3
0.0567358 0.012049 0.012049 2 2 3
0.0567437 0.0120446 0.0120446 2 2 3
0.0567517 0.0120401 0.0120401 2 2 3
0.0567596 0.0120357 0.0120357 2 2 3
0.0567676 0.0120312 0.0120312 2 2 3
0.0567755 0.0120268 0.0120268 2 2 3
0.0567834 0.0120224 0.0120224 2 2 3
0.0567913 0.012018 0.012018 2 2 3
0.0567992 0.0120135 0.0120135 2 2 3
0.056807 0.0120091 0.0120091 2 2 3
0.0568149 0.0120047 0.0120047 2 2 3
0.0568228 0.0120004 0.0120004 2 2 3
0.0568306 0.011996 0.011996 2 2 3
0.0568384 0.0119916 0.0119916 2 2 3
0.0568463 0.0119872 0.0119872 2 2 3
0.0568541 0.0119829 0.0119829 2 2 3
0.0568619 0.0119785 0.0119785 2 2 3
0.0568697 0.0119742 0.0119742 2 2 3
0.0568775 0.0119698 0.0119698 2 2 3
0.0568852 0.0119655 0.0119655 2 2 3
0.056893 0.0119612 0.0119612 2 2 3
0.0569007 0.0119568 0.0119568 2 2 3
0.0569085 0.0119525 0.0119525 2 2 3
0.0569162 0.0119482 0.0119482 2 2 3
0.0569239 0.0119439 0.0119439 2 2 3
0.0569316 0.0119396 0.0119396 2 2 3
0.0569393 0.0119353 0.0119353 2 2 3
0.056947 0.0119311 0.0119311 2 2 3
0.0569547 0.0119268 0.0119268 2 2 3
0.0569624 0.0119225 0.0119225 2 2 3
0.05697 0.0119182 0.0119182 2 2 3
0.0569777 0.011914 0.011914 2 2 3
0.0569853 0.0119097 0.0119097 2 2 3
0.0569929 0.0119055 0.0119055 2 2 3
0.0570006 0.0119013 0.0119013 2 2 3
0.0570082 0.011897 0.011897 2 2 3
0.0570158 0.0118928 0.0118928 2 2 3
0.0570233 0.0118886 0.0118886 2 2 3
0.0570309 0.0118844 0.0118844 2 2 3
0.0570385 0.0118802 0.0118802 2 2 3
0.057046 0.011876 0.011876 2 2 3
0.0570536 0.0118718 0.0118718 2 2 3
0.0570611 0.0118676 0.0118676 2 2 3
0.0570686 0.0118635 0.0118635 2 2 3
0.0570762 0.0118593 0.0118593 2 2 3
0.0570837 0.0118551 0.0118551 2 2 3
0.0570912 0.011851 0.011851 2 2 3
0.0570986 0.0118468 0.0118468 2 2 3
0.0571061 0.0118427 0.0118427 2 2 3
0.0571136 0.0118386 0.0118386 2 2 3
0.057121 0.0118344 0.0118344 2 2 3
0.0571285 0.0118303 0.0118303 2 2 3
0.0571359 0.0118262 0.0118262 2 2 3
0.0571434 0.0118221 0.0118221 2 2 3
0.0571508 0.011818 0.011818 2 2 3
0.0571582 0.0118139 0.0118139 2 2 3
0.0571656 0.0118098 0.0118098 2 2 3
0.057173 0.0118057 0.0118057 2 2 3
0.0571803 0.0118016 0.0118016 2 2 3
0.0571877 0.0117976 0.0117976 2 2 3
0.0571951 0.0117935 0.0117935 2 2 3
0.0572024 0.0117894 0.0117894 2 2 3
0.0572097 0.0117854 0.0117854 2 2 3
0.0572171 0.0117813 0.0117813 2 2 3
0.0572244 0.0117773 0.0117773 2 2 3
0.0572317 0.0117733 0.0117733 2 2 3
0.057239 0.0117693 0.0117693 2 2 3
0.0572463 0.0117652 0.0117652 2 2 3
0.0572536 0.0117612 0.0117612 2 2 3
0.0572608 0.0117572 0.0117572 2 2 3
0.0572681 0.0117532 0.0117532 2 2 3
0.0572753 0.0117492 0.0117492 2 2 3
0.0572826 0.0117452 0.0117452 2 2 3
0.0572898 0.0117412 0.0117412 2 2 3
0.057297 0.0117373 0.0117373 2 2 3
0.0573042 0.0117333 0.0117333 2 2 3
0.0573114 0.0117293 0.0117293 2 2 3
0.0573186 0.0117254 0.0117254 2 2 3
0.0573258 0.0117214 0.0117214 2 2 3
0.057333 0.0117175 0.0117175 2 2 3
0.0573401 0.0117135 0.0117135 2 2 3
0.0573473 0.0117096 0.0117096 2 2 3
0.0573544 0.0117057 0.0117057 2 2 3
0.0573616 0.0117017 0.0117017 2 2 3
0.0573687 0.0116978 0.0116978 2 2 3
0.0573758 0.0116939 0.0116939 2 2 3
0.0573829 0.01169 0.01169 2 2 3
0.05739 0.0116861 0.0116861 2 2 3
0.0573971 0.0116822 0.0116822 2 2 3
0.0574042 0.0116783 0.0116783 2 2 3
0.0574113 0.0116745 0.0116745 2 2 3
0.0574183 0.0116706 0.0116706 2 2 3
0.0574254 0.0116667 0.0116667 2 2 3
0.0574324 0.0116629 0.0116629 2 2 3
0.0574394 0.011659 0.011659 2 2 3
0.0574465 0.0116551 0.0116551 2 2 3
